# .PCD v0.7 - Point Cloud Data file format
VERSION 0.7
FIELDS x y z intensity
SIZE 4 4 4 4
TYPE F F F F
COUNT 1 1 1 1
WIDTH 1453
HEIGHT 1
VIEWPOINT 0 0 0 1 0 0 0
POINTS 1453
DATA ascii
19.647493 -0.65806925 0.81485504 0
24.099358 -0.66201162 0.85799897 0
-6.5756798 -0.53782809 0.82951123 0
4.8556795 -0.59391302 0.8176738 0
5.6914873 -0.57309365 0.80701005 0
7.6769652 -0.59547311 0.84078652 0
-6.7693567 -0.47924066 0.8614257 0
-6.641644 -0.47602829 0.80666697 0
-6.8690629 2.0993845 0.81696004 0
-6.8557997 2.1165342 0.83618879 0
-6.7575212 2.107301 0.84889936 0
-6.5331249 2.1139102 0.88564181 0
-6.4660177 2.1139483 0.89754665 0
-5.0260906 2.1133318 0.8832432 0
-4.9302154 2.1075766 0.85639858 0
-4.8447561 2.1125913 0.84829032 0
-4.7973971 2.1011353 0.84823459 0
-4.479516 2.1094503 0.85966718 0
-4.237545 2.1203852 0.84814143 0
-4.1724558 2.1134846 0.84420568 0
-3.0688787 2.1357529 0.8707391 0
-2.5000982 2.1176763 0.88286602 0
-2.4287531 2.1158209 0.85336232 0
-2.3737955 2.1253405 0.84437829 0
12.507488 2.3851569 0.89220119 0
12.636025 2.3797386 0.85591626 0
12.798336 2.3752987 0.85006225 0
12.872602 2.3791027 0.86102855 0
13.345135 2.3944044 0.82975715 0
14.576396 2.3839505 0.8603406 0
15.345974 2.3699932 0.84254622 0
17.368385 2.3807311 0.8905353 0
17.550737 2.3892784 0.85305721 0
17.643036 2.3915975 0.8377794 0
-2.3613062 2.4492877 0.82774675 0
12.49625 2.4390564 0.84292221 0
12.513613 2.445297 0.84049213 0
17.661095 2.4191728 0.85532045 0
-2.3508272 2.5313735 0.82110786 0
12.516831 2.5940442 0.86137044 0
14.535788 2.5920138 0.85294557 0
28.811663 2.5929108 0.82811457 0
-2.3531833 2.808732 0.87024719 0
28.805908 2.936317 0.8046838 0
21.192726 3.1256783 0.87189978 0
21.209042 3.1498744 0.85473239 0
21.35428 3.1269615 0.83624166 0
28.675808 3.1468039 0.8854019 0
28.770966 3.1435175 0.84498459 0
28.804171 3.1271892 0.83282602 0
-8.9414196 4.484725 0.82511425 0
1.0446081 4.4850068 0.83262777 0
1.1511461 4.4901333 0.86198735 0
1.2056661 4.4862938 0.86237985 0
1.1545517 4.5025253 0.83723652 0
1.230638 4.6061668 0.8364222 0
1.5629749 5.2745485 0.82482195 0
1.7667701 5.2653065 0.82626176 0
1.8627188 5.2667069 0.83647591 0
2.0140977 5.2669611 0.84699339 0
2.3114264 5.2817178 0.84106803 0
3.8183887 5.2873325 0.80849969 0
3.4439869 5.3101754 0.86132461 0
3.7181983 5.3199744 0.8436811 0
3.8386629 5.3121271 0.8459059 0
3.9601502 5.302887 0.86342883 0
4.2552996 5.3321924 0.85400301 0
4.3942723 5.3107638 0.82515389 0
4.4536371 5.3423381 0.83669889 0
4.6695471 5.3915339 0.83233553 0
4.9360857 5.3086257 0.83819801 0
5.0751624 5.3526011 0.85277218 0
5.1842976 5.3472457 0.83270758 0
5.250803 5.3607903 0.82585251 0
5.3497267 5.320353 0.82596034 0
5.5750408 5.3484468 0.83415806 0
6.1806316 5.3865409 0.84145278 0
6.2182779 5.3809533 0.85599101 0
6.3885956 5.3715601 0.85578698 0
6.5893407 5.3964071 0.8667618 0
6.8642192 5.3844724 0.85826117 0
7.1247077 5.3946166 0.84009928 0
7.1131382 5.4185705 0.86753899 0
7.2094336 5.4000468 0.84935433 0
8.1464548 5.4189796 0.85792363 0
8.2497101 5.4277787 0.84606391 0
8.4590206 5.4216051 0.83577228 0
9.0369749 5.4453478 0.87276751 0
9.460434 5.471808 0.85687828 0
12.489516 5.7555008 0.87710977 0
6.182806 6.0091009 0.83808929 0
17.665873 6.1284709 0.86048877 0
12.494947 6.2722349 0.88023549 0
16.820808 6.2561326 0.842107 0
17.656231 6.2773299 0.84275025 0
21.174225 6.293077 0.8995024 0
9.7544603 6.3321619 0.89781076 0
9.803071 6.3362451 0.85767603 0
9.9127131 6.3430147 0.87225199 0
10.070262 6.3165383 0.88676512 0
10.34573 6.3291788 0.87245876 0
12.436524 6.3382812 0.80702055 0
12.544295 6.3240948 0.8013624 0
17.656073 6.3554196 0.8556385 0
21.163366 6.3697181 0.85380918 0
9.7525425 6.4992161 0.82327121 0
9.7455673 6.9653349 0.89630538 0
9.7399139 7.0142102 0.86457092 0
-1.3579628 -12.953596 0.90434265 0
1.9597211 -12.96804 0.90944338 0
2.1809313 -12.94825 0.94533461 0
3.2448833 -12.935423 0.95837009 0
6.3748016 -12.952098 0.91528624 0
6.4723458 -12.938601 0.90051806 0
7.2857614 -12.946156 0.94125062 0
7.3588171 -12.939521 0.94476515 0
7.4010282 -12.947491 0.98219979 0
14.380151 -12.925121 0.94221592 0
14.406229 -12.919905 0.9829706 0
16.661871 -12.918602 0.91209602 0
16.851912 -12.944118 0.9776094 0
7.3291245 -12.870369 0.94748038 0
14.420223 -12.87233 0.93158215 0
16.657959 -12.856701 0.91110492 0
14.350673 -11.799177 0.97194004 0
16.318321 -11.674124 0.9830277 0
2.1747608 -10.729599 0.97540414 0
7.3140001 -10.035936 0.94724631 0
7.3246689 -9.9765816 0.90754426 0
-8.9395952 -9.731904 0.95985353 0
-1.7336104 -9.735527 0.92234546 0
-1.6745696 -9.7308006 0.94520724 0
-1.5358878 -9.7255278 0.9449777 0
-1.4441918 -9.7246771 0.95870572 0
-1.3867345 -9.7176752 0.98888433 0
-8.9661036 -9.6476345 0.94833732 0
2.1827755 -9.5259237 0.98751622 0
2.1745925 -9.4247494 0.9351458 0
2.1610842 -9.1237793 0.95050246 0
2.1719363 -9.0565472 0.95563877 0
7.3324604 -9.0327349 0.9545151 0
-8.9733353 -8.9033089 0.98984993 0
2.2437 -8.9877605 0.99269897 0
2.8932433 -8.9687252 0.91007912 0
3.0157743 -8.9780636 0.90206027 0
4.7720346 -8.984786 0.95395666 0
5.2274108 -8.9767551 0.96359581 0
5.3047733 -8.9691372 0.92864978 0
7.3319769 -8.9871483 0.94466829 0
22.226603 -8.8717928 0.9020797 0
22.250584 -8.7163038 0.96727651 0
22.33886 -8.7197075 0.95013928 0
22.866762 -8.7110233 0.95915157 0
26.270309 -8.7079182 0.90693116 0
26.30036 -8.7031136 0.90753996 0
26.720514 -8.712553 0.97570378 0
24.337984 -8.6986904 0.91364813 0
26.540037 -8.6937532 0.95543307 0
26.687576 -8.6977415 0.97045612 0
26.708759 -8.6923504 0.97513169 0
12.187172 -6.0083275 0.94759709 0
12.230945 -6.0342774 0.95165366 0
13.030999 -6.0290651 0.92895877 0
14.174792 -6.0220113 0.95365089 0
14.487804 -6.0263882 0.99306262 0
14.667749 -6.031167 0.98351872 0
14.751577 -6.0221615 0.9443723 0
14.9748 -6.0203195 0.93492585 0
26.434223 -6.050128 0.93516952 0
26.520199 -6.0914626 0.9207049 0
-3.8056192 -5.9495344 0.93833923 0
0.24291086 -5.9318438 0.94801664 0
0.54256964 -5.9136496 0.91327357 0
4.7994885 -5.935976 0.97693133 0
4.8368931 -5.9237704 0.91708678 0
5.1626463 -5.9219728 0.95302814 0
12.185793 -5.995533 0.97296751 0
12.20648 -5.9554472 0.93777239 0
26.445995 -5.8846498 0.9582597 0
0.6286335 -5.7532015 0.98507977 0
5.1751242 -5.7413573 0.99427938 0
12.183444 -5.7228141 0.98990512 0
5.1839375 -5.6233816 0.92421281 0
14.997912 -5.6489172 0.93812793 0
-3.7840512 -5.538435 0.98219788 0
0.63153839 -5.5981359 0.95953786 0
5.1780119 -5.5834222 0.93207932 0
14.993492 -5.547029 0.95040172 0
0.27260014 -5.4308095 0.94010967 0
0.59569079 -5.4572239 0.97075397 0
0.62329149 -5.4623399 0.95483309 0
4.98209 -5.4321694 0.97685349 0
5.1703739 -5.4361057 0.99340576 0
26.433495 -5.4169946 0.96881258 0
12.156019 -5.3657823 0.94053638 0
12.188363 -5.26652 0.90722299 0
14.983747 -4.7362456 0.9605245 0
14.973765 -4.4929004 0.97860795 0
12.194932 -4.3176928 0.93214148 0
26.397726 -4.3127947 0.97375154 0
26.433193 -4.3056192 0.95097566 0
28.534189 -4.307641 0.93833703 0
26.44133 -4.2918768 0.96510327 0
28.46273 -4.2817016 0.93423557 0
12.185959 -4.145905 0.96348989 0
13.012745 -4.1495743 0.92291451 0
14.975 -4.1468143 0.92232543 0
12.169151 -4.0764532 0.97719681 0
12.229576 -4.0940685 0.97021228 0
12.515854 -4.0731368 0.94045699 0
12.770477 -4.0870686 0.99847406 0
12.944319 -4.0723639 0.93139416 0
14.171711 -4.0785217 0.97385627 0
14.234357 -4.0745087 0.91053182 0
14.451839 -4.0895338 0.9580133 0
14.874293 -4.0719981 0.95317358 0
14.96916 -4.0845671 0.94098759 0
-2.0116675 -2.6380739 0.96698189 0
-1.959834 -2.6550775 0.9758997 0
-1.7453215 -2.6398907 0.96453309 0
-2.017581 -2.5518656 0.90782493 0
-1.9756968 -2.571574 0.92044848 0
-0.35954952 -2.5534875 0.90575117 0
4.8627744 -2.5104771 0.96044779 0
4.9791346 -2.5236783 0.98552799 0
5.0749483 -2.5179625 0.91232044 0
5.232522 -2.5185218 0.96712542 0
5.3364735 -2.5199704 0.93189383 0
5.4311633 -2.5228307 0.93532985 0
5.6552296 -2.516185 0.93283969 0
5.7103782 -2.5073185 0.93560994 0
6.8538256 -2.5238557 0.94763869 0
6.9238524 -2.5107279 0.94500446 0
7.0297308 -2.5128617 0.91379619 0
7.3879328 -2.5060215 0.9478699 0
7.5862379 -2.5158439 0.963395 0
7.6508241 -2.5162044 0.9448598 0
4.870985 -2.4589369 0.94348693 0
5.7058125 -2.4666653 0.99540567 0
7.6757889 -2.4770963 0.94862634 0
4.8478479 -2.340703 0.96266067 0
7.6733208 -2.3485022 0.97095311 0
-8.6846657 -2.2920103 0.97484756 0
-8.3908415 -2.2955976 0.98029262 0
-6.7387156 -2.2941175 0.91216052 0
-6.5849185 -2.2401736 0.92449695 0
-0.24063587 -2.2994928 0.97879231 0
-0.24104834 -2.1704783 0.97566831 0
7.658699 -2.1649861 0.90934032 0
-1.9781895 -1.9722414 0.90062755 0
-1.8648715 -1.9072165 0.90203863 0
-0.3055377 -1.9462588 0.95902407 0
-0.26691902 -1.9199252 0.99315751 0
-0.25266123 -1.899161 0.99152648 0
7.6766214 -1.7453737 0.95867252 0
17.911121 -1.6258324 0.98023725 0
19.919092 -1.6290293 0.95857584 0
22.901867 -1.6001686 0.99159104 0
24.936857 -1.614074 0.90389085 0
17.919922 -1.5777769 0.91138124 0
14.943111 -1.1507847 0.92716855 0
23.625549 -1.1416731 0.9490326 0
24.092396 -1.1401396 0.95690852 0
24.100887 -1.1340349 0.9794575 0
14.664842 -1.0690656 0.93926114 0
15.152203 -0.93774533 0.97895843 0
24.106825 -0.99860853 0.9272933 0
4.8286042 -0.88857663 0.97778624 0
7.6564717 -0.82102108 0.96156597 0
19.693493 -0.84699339 0.97420204 0
19.704784 -0.84294724 0.96953893 0
23.598595 -0.84656268 0.97728109 0
4.8542538 -0.74457371 0.96458584 0
14.673353 -0.7453205 0.91455984 0
19.207256 -0.77255177 0.97672707 0
19.699543 -0.71915054 0.94529939 0
-6.6028481 -0.62629759 0.96990025 0
4.8565025 -0.66392976 0.93809414 0
6.8406806 -0.60247386 0.95884985 0
7.666091 -0.6257484 0.98451912 0
19.227701 -0.65394974 0.91442221 0
19.64959 -0.65863311 0.94506067 0
19.711132 -0.66045153 0.91816026 0
23.62598 -0.6404736 0.93471152 0
23.725174 -0.64609128 0.90275937 0
-6.5728798 -0.54146492 0.93960643 0
4.8469691 -0.58679605 0.9561711 0
7.58357 -0.56351411 0.96223062 0
7.6732955 -0.59740341 0.97438234 0
-6.8727236 2.0946221 0.92846048 0
-5.0095639 2.0994051 0.96347117 0
-6.8713775 2.1140842 0.96460265 0
-6.6290751 2.1157789 0.93490911 0
-5.0174279 2.1154027 0.90019572 0
-4.3145247 2.1178117 0.91045153 0
-4.2747564 2.1211033 0.94239038 0
-3.9761341 2.1341715 0.97356355 0
-2.8146455 2.114934 0.99108469 0
-2.4630167 2.1162481 0.96763819 0
-2.3780394 2.1190937 0.94963813 0
-2.368525 2.2471209 0.9369452 0
12.522301 2.3921385 0.95935374 0
12.631235 2.3816905 0.94348735 0
13.248453 2.3799565 0.93929404 0
13.346693 2.3969562 0.98059911 0
14.628931 2.3834562 0.95296013 0
14.878564 2.3770125 0.93459612 0
15.004835 2.3843613 0.9941889 0
15.297544 2.3751476 0.90006977 0
15.359966 2.3746881 0.98525596 0
16.886292 2.384023 0.93535805 0
16.929623 2.3923221 0.94997734 0
17.521362 2.3785651 0.98343015 0
17.617226 2.3720078 0.96077484 0
12.493101 2.4905019 0.97449106 0
12.514279 2.4377317 0.94037384 0
16.825638 2.417104 0.92159873 0
17.675905 2.4229488 0.94438332 0
12.517707 2.6121416 0.95946121 0
21.185978 3.1308577 0.993999 0
21.245512 3.1308739 0.94702435 0
21.337141 3.1302006 0.93745917 0
21.419621 3.1280837 0.94940341 0
28.777264 3.1474748 0.95368767 0
28.810684 3.1151211 0.94340646 0
-2.352345 3.5629818 0.98154694 0
-2.3495986 3.8318067 0.92653996 0
0.62944889 4.4869843 0.96389067 0
0.75323057 4.4763889 0.99673933 0
1.0463678 4.4859576 0.95606548 0
1.1995704 4.4895153 0.92004961 0
1.2117177 4.4922009 0.9127593 0
1.1631255 4.511889 0.91919148 0
1.218076 4.5015612 0.93137431 0
1.250242 4.6375356 0.94952857 0
9.7702522 6.3438578 0.94807708 0
12.433475 6.3546591 0.97377706 0
12.50262 6.3434916 0.93178475 0
15.368945 6.300457 0.97347313 0
17.677423 6.3557963 0.9569003 0
17.732471 6.3635235 0.97606689 0
9.7501211 6.8576441 0.91778791 0
9.7520199 7.0318723 0.90563428 0
-1.3420538 -12.956544 1.0566787 0
2.1727433 -12.94953 1.0198148 0
4.464612 -12.944378 1.0132602 0
6.1302876 -12.934643 1.0487124 0
6.2319827 -12.940092 1.0758311 0
6.3705549 -12.94112 1.0990651 0
6.4787636 -12.940021 1.0129193 0
7.271152 -12.944331 1.0525703 0
7.3444266 -12.940465 1.0425661 0
14.595443 -12.916418 1.0171893 0
18.371273 -12.889341 1.0875235 0
7.3383169 -12.784199 1.0843191 0
22.233971 -10.183646 1.0207552 0
22.218128 -9.8654594 1.01533 0
-8.9462032 -9.7269487 1.0332497 0
-8.8863363 -9.7392721 1.0084206 0
-1.9904628 -9.7229519 1.0398594 0
-1.8572298 -9.7206736 1.0938392 0
-1.7330546 -9.7237492 1.0883887 0
-1.6707759 -9.7278957 1.0205334 0
-1.551722 -9.7155256 1.086231 0
-1.4565525 -9.7289429 1.0568897 0
-1.3719313 -9.7277431 1.0400454 0
-8.9657068 -9.6445999 1.0516878 0
-1.4380565 -9.6985607 1.0574766 0
2.1687553 -9.5354033 1.0357615 0
2.1760817 -9.3657885 1.0859784 0
2.1739035 -9.1668997 1.0557021 0
7.3280082 -9.0533981 1.0531465 0
2.2992868 -8.9858303 1.0292196 0
2.3450208 -8.9899912 1.0822798 0
2.4889314 -8.9848833 1.0751383 0
3.0139794 -8.9766865 1.0899479 0
7.2912002 -8.9771242 1.0612308 0
7.3322482 -8.9909573 1.0710149 0
22.220894 -8.8090315 1.0164305 0
22.239754 -8.7289362 1.0406915 0
22.31917 -8.7115154 1.0693362 0
24.035986 -8.7168398 1.0076433 0
24.111525 -8.7164288 1.0972286 0
24.847412 -8.7047424 1.0353291 0
24.332998 -8.6860828 1.0757437 0
12.193455 -6.0303535 1.0571041 0
12.260155 -6.0301728 1.0348456 0
12.310674 -6.0374608 1.0457731 0
12.895922 -6.0318189 1.0052414 0
14.217998 -6.0300503 1.0596626 0
14.992229 -6.0182395 1.0258007 0
15.006269 -6.0206704 1.0187951 0
26.425262 -6.0449729 1.0499986 0
26.632362 -6.0811882 1.0054923 0
-3.9122007 -5.9264793 1.0529426 0
0.14474821 -5.9063711 1.085259 0
0.55134267 -5.9175696 1.0897909 0
0.62527227 -5.9235868 1.0367099 0
4.7526727 -5.9285049 1.0048912 0
12.201899 -5.9859576 1.0916247 0
13.02704 -5.9862127 1.0119611 0
14.981733 -5.9474859 1.0753993 0
15.002346 -5.9116955 1.0979705 0
26.433367 -5.9692035 1.0648795 0
15.005938 -5.8662481 1.0936292 0
26.445316 -5.8494902 1.0259638 0
0.62425041 -5.7509127 1.0574822 0
0.64134789 -5.6080379 1.0706371 0
5.1807084 -5.6214609 1.0571744 0
26.436995 -5.6289625 1.0626926 0
0.64048672 -5.5311937 1.060263 0
5.1782317 -5.5144653 1.0422674 0
0.49307466 -5.4321966 1.0727931 0
0.56531036 -5.4439631 1.0646489 0
0.62852669 -5.4484425 1.0657734 0
4.8276596 -5.4297433 1.0132185 0
5.1709557 -5.4735646 1.0644851 0
14.974639 -5.4048581 1.0082809 0
-8.9874067 -5.2848339 1.0196621 0
12.18281 -4.6662469 1.0077426 0
14.988957 -4.6450334 1.0365287 0
12.18576 -4.5722222 1.0432065 0
14.984426 -4.5700245 1.0015236 0
12.180447 -4.4461985 1.0529708 0
14.968943 -4.4602385 1.0744655 0
26.408506 -4.4199114 1.0897267 0
14.998264 -4.3163939 1.0404747 0
26.430193 -4.3381357 1.0744185 0
28.836884 -4.3920751 1.0810584 0
28.480652 -4.2987862 1.0756658 0
28.534473 -4.2795081 1.0639342 0
12.186255 -4.1571651 1.0258796 0
13.008313 -4.161335 1.09659 0
14.983944 -4.1373243 1.0387423 0
12.180279 -4.0814853 1.0319579 0
12.214475 -4.0849924 1.0377688 0
12.7734 -4.0883203 1.0239124 0
12.942379 -4.0656004 1.0705953 0
14.17039 -4.0807447 1.0406406 0
14.235858 -4.0879493 1.0722452 0
14.620095 -4.0688314 1.0265858 0
14.857622 -4.08319 1.0634335 0
14.947545 -4.073513 1.0667914 0
-1.9236135 -2.8180876 1.0784897 0
-2.0206158 -2.7108932 1.082664 0
-1.9440397 -2.7113006 1.0138615 0
-1.8970962 -2.7995 1.0704079 0
-0.36044002 -2.7262497 1.0051534 0
-0.27084553 -2.7178156 1.0166686 0
-2.027616 -2.6385198 1.050303 0
-1.9203639 -2.6754065 1.002532 0
-2.026372 -2.5642571 1.0350653 0
4.8703618 -2.5109344 1.0458543 0
4.9373231 -2.5205655 1.0529349 0
5.1997328 -2.5225124 1.0933397 0
5.2030482 -2.5098114 1.0894352 0
5.5482469 -2.5269046 1.003909 0
5.6459141 -2.5277421 1.0394784 0
5.7054443 -2.5213127 1.022029 0
6.8699889 -2.5140519 1.0435715 0
6.9255562 -2.5152686 1.0501028 0
7.5974474 -2.5292602 1.0937426 0
7.6583624 -2.5139871 1.0649669 0
-1.6867038 -2.4375501 1.0434523 0
-0.24165726 -2.4749024 1.0776142 0
4.8590903 -2.4451947 1.0616693 0
6.8505912 -2.4915147 1.0466362 0
7.6553168 -2.4651997 1.0629379 0
-6.7000027 -2.3020883 1.0423361 0
4.843019 -2.3240261 1.0084703 0
-8.6510658 -2.2885036 1.0209742 0
-6.8497295 -2.2853284 1.0634823 0
-6.5761862 -2.2555361 1.0550048 0
5.6997423 -2.2582693 1.0214418 0
7.6805296 -2.2585273 1.0903025 0
7.6696677 -2.1863205 1.0487556 0
-0.25618982 -1.9159642 1.0624523 0
7.6769409 -1.7304704 1.0038728 0
14.66362 -1.1290592 1.0234836 0
14.86404 -1.1493831 1.0689815 0
14.902441 -1.1521673 1.0050367 0
19.225998 -1.1273708 1.0523739 0
23.77993 -1.1353655 1.0925992 0
24.094757 -1.1051215 1.0187943 0
14.672209 -1.0351816 1.01657 0
-6.5678487 -0.97731638 1.0910811 0
19.696423 -0.98447174 1.0285468 0
23.613976 -0.95265251 1.014905 0
24.100925 -0.99446607 1.0662563 0
4.8564796 -0.838413 1.0147072 0
19.196384 -0.8483482 1.0199567 0
4.8539639 -0.77003241 1.0119084 0
15.137842 -0.75289422 1.0585628 0
19.208811 -0.72907937 1.0560026 0
19.705082 -0.79283255 1.0330328 0
7.6610661 -0.67989647 1.066449 0
15.137709 -0.68066198 1.0526103 0
19.203934 -0.68076015 1.0223734 0
23.636009 -0.63445556 1.0752062 0
-6.5737891 -0.53981054 1.060137 0
4.8670158 -0.57730007 1.010854 0
7.6471758 -0.59286141 1.0845705 0
-6.6474543 -0.47641701 1.0445248 0
-2.4262328 2.0954633 1.0648059 0
-6.853138 2.1078649 1.0238785 0
-6.5689979 2.1080294 1.0503894 0
-5.4725895 2.1199951 1.0353935 0
-5.0197177 2.115428 1.0845578 0
-4.9435625 2.1130366 1.0423132 0
-4.3151927 2.1129968 1.0659913 0
-4.2487259 2.1171868 1.0484635 0
-3.2502165 2.1309402 1.0718715 0
-2.9322414 2.1362262 1.0774244 0
-2.5752449 2.1463068 1.0594566 0
-2.4430385 2.1221809 1.0365263 0
-2.3756993 2.13906 1.0420991 0
-2.3587141 2.2636681 1.0968279 0
12.484058 2.3776517 1.0342809 0
12.544593 2.3820608 1.0347681 0
12.660424 2.3787582 1.0534537 0
13.238737 2.3719702 1.040067 0
14.564581 2.3836718 1.0448408 0
14.830683 2.3882549 1.0679786 0
14.94087 2.3935442 1.0721178 0
15.093681 2.3938694 1.0097805 0
15.106052 2.3910732 1.0537162 0
15.282726 2.3787928 1.0836579 0
16.880827 2.386842 1.0943582 0
17.464775 2.3810756 1.0403708 0
17.583448 2.3878381 1.054824 0
17.641029 2.3877702 1.0213345 0
12.510659 2.4352937 1.0599178 0
17.648163 2.7086303 1.0510052 0
28.800125 2.8410571 1.0120877 0
28.798395 3.0878873 1.0262595 0
28.802927 3.0981598 1.0602745 0
-2.358757 3.1624727 1.054302 0
21.212358 3.1471627 1.0758711 0
21.34617 3.1310236 1.0440719 0
21.40473 3.1191113 1.0231647 0
21.521221 3.1363411 1.029417 0
21.624186 3.1317248 1.0442543 0
28.781166 3.1546259 1.0507303 0
28.804375 3.1295435 1.053793 0
12.517816 3.5363836 1.0171106 0
-2.3487692 3.7482514 1.0762167 0
12.502573 3.7150958 1.0409281 0
-2.356005 3.8720789 1.0577533 0
-8.972065 4.48703 1.0320762 0
0.61375332 4.4908152 1.0612746 0
0.73909831 4.4900093 1.0217985 0
0.86312246 4.4964933 1.0366222 0
1.139863 4.4952936 1.0640442 0
1.2063552 4.4925437 1.0483537 0
1.1289601 4.50664 1.0444844 0
1.2117966 4.5263953 1.0587584 0
1.2250429 4.6594405 1.0534602 0
1.5182366 5.2729669 1.037424 0
3.9727445 5.2832017 1.009321 0
6.3909121 5.3496099 1.0514828 0
16.821009 6.2818737 1.0773251 0
17.657497 6.2752771 1.0598685 0
9.8157244 6.3368778 1.0448718 0
9.9077768 6.342802 1.0936856 0
12.465244 6.3475833 1.03225 0
12.563285 6.3404684 1.0729983 0
17.6549 6.3470678 1.0611122 0
21.175886 6.3661594 1.0395184 0
2.1579182 -12.938969 1.1249878 0
7.2934141 -12.939614 1.1578245 0
7.3735476 -12.941098 1.1508818 0
7.4099078 -12.948086 1.1864622 0
7.3340092 -12.840288 1.1713849 0
28.837435 -10.681381 1.1612024 0
22.208048 -10.470283 1.1692826 0
22.226372 -10.111917 1.1379346 0
22.213608 -9.8298626 1.1325747 0
-8.9588528 -9.7327576 1.1426849 0
-8.7338076 -9.7355652 1.1936085 0
-2.1354947 -9.716011 1.146161 0
-1.7615461 -9.7349148 1.1513889 0
-1.6307898 -9.7126112 1.1476753 0
-1.5915956 -9.722312 1.1563792 0
-1.4493927 -9.7308874 1.1382358 0
-1.3755121 -9.726182 1.1835804 0
22.226433 -9.7897081 1.1567622 0
-8.9778843 -9.6556253 1.1603315 0
-1.5322471 -9.6953602 1.1115644 0
-1.4843059 -9.6913404 1.11949 0
7.3368196 -9.6422243 1.1258184 0
2.1651525 -9.3214598 1.1937196 0
2.1599152 -9.1262074 1.1548388 0
7.32024 -9.1640539 1.1649441 0
2.1622641 -9.052454 1.1946566 0
7.3269911 -9.029953 1.1475753 0
2.2378669 -8.9853878 1.1894996 0
4.7191133 -8.9844122 1.1475055 0
4.9849186 -8.9770546 1.1224591 0
5.2673812 -8.9768887 1.1239647 0
7.2850156 -8.9752369 1.1371846 0
7.321826 -8.9817467 1.1284 0
22.221493 -8.8231316 1.165578 0
22.195248 -8.7929926 1.1485249 0
22.23975 -8.72925 1.1411332 0
22.323425 -8.7137756 1.1187847 0
24.032381 -8.7147999 1.1944671 0
25.213858 -8.7126942 1.1987575 0
26.235231 -8.7166739 1.1141409 0
26.338346 -8.7042751 1.1108543 0
26.697727 -8.7064171 1.1828461 0
26.714903 -8.7057381 1.1773618 0
24.222673 -8.6994133 1.1332868 0
26.056366 -8.6851416 1.118064 0
26.158949 -8.6957903 1.1315614 0
26.550705 -8.6910305 1.1622208 0
12.184267 -6.0212455 1.1491253 0
12.254649 -6.0402312 1.1704384 0
12.904257 -6.0334826 1.1968762 0
14.998839 -6.0120106 1.1156754 0
26.442148 -6.0621495 1.1467571 0
-3.8182087 -5.9439692 1.1311584 0
0.23536921 -5.9327669 1.1073036 0
0.49952316 -5.9346671 1.1845398 0
0.52587128 -5.9308128 1.1432035 0
12.188324 -5.9097881 1.1313663 0
26.434967 -5.9733806 1.1879188 0
-3.7737274 -5.8154373 1.1285985 0
0.62641621 -5.8428006 1.1285355 0
12.181006 -5.8754768 1.1598119 0
14.991494 -5.8571744 1.1000125 0
26.427309 -5.869421 1.1704333 0
-3.7813063 -5.722333 1.1843655 0
5.1790285 -5.7439203 1.19147 0
-3.7774954 -5.692708 1.1165048 0
0.62291384 -5.509428 1.1644088 0
0.26982075 -5.4578896 1.1439103 0
0.59276986 -5.4432373 1.154734 0
0.62389505 -5.4649663 1.1363124 0
26.421251 -5.3874545 1.140708 0
12.172607 -4.6185617 1.1390458 0
14.982843 -4.5813417 1.1576815 0
26.417673 -4.4301162 1.1110739 0
28.825489 -4.4114699 1.1031851 0
26.432831 -4.315352 1.1209679 0
12.169699 -4.2466488 1.1227829 0
14.147221 -4.1954784 1.1107076 0
12.168655 -4.0833092 1.1350861 0
12.221867 -4.0835652 1.1657119 0
12.77229 -4.0692906 1.1760322 0
12.943199 -4.0717578 1.1448145 0
14.172812 -4.0824957 1.1554852 0
14.552707 -4.091917 1.1695427 0
14.876923 -4.0753784 1.182416 0
14.973116 -4.0703349 1.146158 0
-2.0256336 -2.8214252 1.1540598 0
-1.9586215 -2.8674598 1.1545153 0
-1.7375451 -2.857924 1.1453235 0
-1.647923 -2.8582535 1.1312571 0
-0.57054377 -2.8556249 1.1196945 0
-0.27771005 -2.8512311 1.1804535 0
-2.0272186 -2.7194359 1.1419078 0
-2.0287044 -2.6419165 1.1523871 0
-2.0158262 -2.5553031 1.1065264 0
4.8476467 -2.5092654 1.1179287 0
4.9536982 -2.5187192 1.1907138 0
5.0812674 -2.5216637 1.1032424 0
5.1423607 -2.5280352 1.1731147 0
5.3360677 -2.5226998 1.1729367 0
5.6697493 -2.5140345 1.1297135 0
5.707303 -2.5092282 1.147428 0
6.8548636 -2.5167758 1.1635067 0
6.9516683 -2.5161631 1.1378993 0
7.0233917 -2.5200799 1.1552887 0
7.2529778 -2.5137658 1.1407307 0
7.5873013 -2.51688 1.1877769 0
7.6496658 -2.5183108 1.1517329 0
4.8514681 -2.435216 1.121176 0
5.6937284 -2.4190578 1.1179748 0
5.7020311 -2.4633307 1.1992433 0
6.8880463 -2.4970336 1.1061345 0
6.9192748 -2.4972038 1.120968 0
7.6719513 -2.4536631 1.1399441 0
-2.0127654 -2.3569708 1.1011933 0
-0.24645758 -2.3635783 1.1267933 0
7.6698866 -2.3945935 1.1082196 0
-8.0944862 -2.2841282 1.1297561 0
-7.7658253 -2.2822347 1.1328425 0
-7.6959743 -2.2963061 1.1492059 0
-6.9516149 -2.2833033 1.1110215 0
-6.5792241 -2.2350814 1.1389353 0
-6.5771408 -2.1414881 1.1580048 0
7.6677036 -2.1584146 1.1549027 0
-2.0324965 -2.0177684 1.114351 0
4.8552027 -2.043365 1.1505406 0
14.703117 -1.1650929 1.1323824 0
19.33535 -1.1544552 1.1281073 0
23.626217 -1.1341252 1.1129262 0
-6.5737963 -1.0630589 1.1952467 0
4.8651352 -1.0900961 1.1594211 0
14.661049 -1.0219646 1.1867565 0
7.6623077 -0.96351242 1.1110029 0
19.216358 -0.94259739 1.1756206 0
4.8451419 -0.89174694 1.1617761 0
7.654501 -0.81924844 1.1158457 0
23.614897 -0.84883219 1.1873028 0
4.8542647 -0.75846422 1.1427068 0
7.6521692 -0.75991666 1.1191663 0
15.141853 -0.75890028 1.1428282 0
19.70204 -0.70166749 1.1802666 0
23.619036 -0.7186715 1.1276841 0
4.8601503 -0.65424669 1.1413784 0
7.6878967 -0.62582183 1.1504029 0
15.030779 -0.67125422 1.116609 0
15.122885 -0.67140436 1.1403787 0
23.604885 -0.6421988 1.1135418 0
-6.5823607 -0.53633469 1.1758013 0
7.3512583 -0.56975675 1.1569277 0
7.6786876 -0.58931696 1.1638052 0
-6.836853 2.0961411 1.1322343 0
-6.9013777 2.1032999 1.1215332 0
-6.8782263 2.106585 1.1519046 0
-5.3771019 2.1165099 1.1135118 0
-5.0161743 2.1154454 1.155427 0
-4.494998 2.1196709 1.1037548 0
-4.2858634 2.1201737 1.171905 0
-3.9259105 2.1069646 1.152818 0
-3.7313454 2.1231976 1.1937497 0
-3.2532537 2.1152778 1.199569 0
-3.1234074 2.1077547 1.1987225 0
-2.443979 2.1235926 1.1523744 0
-2.3713381 2.1243148 1.1464564 0
-2.3733463 2.2282286 1.1871909 0
12.622192 2.3808281 1.1799877 0
14.598711 2.3745968 1.1584009 0
14.60692 2.3846822 1.1966673 0
14.954007 2.3835127 1.1316428 0
15.046316 2.3837109 1.1369481 0
15.165364 2.3926458 1.1558975 0
16.929197 2.392756 1.1558712 0
17.468596 2.3831377 1.1739709 0
17.537697 2.3943768 1.1483612 0
17.658813 2.3967769 1.1515011 0
-2.3580332 2.4482889 1.1217124 0
12.511229 2.438889 1.1500808 0
17.659697 2.4168181 1.1524546 0
12.517574 2.529016 1.1970536 0
12.499475 2.617897 1.124222 0
-2.3442116 3.0642753 1.1064337 0
28.796021 3.080632 1.1567639 0
21.199907 3.1159091 1.1412307 0
21.220013 3.128129 1.1112856 0
21.344133 3.1294432 1.1390883 0
28.65716 3.152714 1.1396328 0
28.761547 3.1439261 1.1507781 0
28.803707 3.1134017 1.1929424 0
21.200161 3.2013817 1.1158117 0
12.515851 3.3641894 1.1662856 0
-2.3463194 3.5534754 1.13679 0
-2.3572464 3.6079955 1.1531088 0
-2.351275 3.7795696 1.1630801 0
-8.947237 4.4864817 1.1276882 0
0.63462877 4.489213 1.1738229 0
0.84496111 4.4935508 1.1050352 0
1.0616343 4.4857426 1.1979977 0
1.1764007 4.4820929 1.1022091 0
1.2067823 4.4894285 1.1819704 0
1.2431345 4.5349469 1.1139281 0
1.2345287 4.6358447 1.1566364 0
17.651934 6.1383653 1.1304369 0
17.653126 6.2845564 1.1293366 0
9.7893295 6.3361378 1.1557317 0
9.8042088 6.3525658 1.1245832 0
10.069525 6.3260274 1.1801825 0
12.342073 6.3414049 1.1909577 0
12.408766 6.3331175 1.1346658 0
12.535814 6.3290362 1.1585214 0
15.364641 6.3074293 1.1912082 0
17.671562 6.3512073 1.1557344 0
21.173979 6.3030453 1.1260556 0
-1.3142334 -12.957911 1.2689694 0
2.1493621 -12.945415 1.2585416 0
6.475256 -12.935821 1.2057831 0
7.2637362 -12.942453 1.2797147 0
7.3424592 -12.941882 1.2252014 0
11.010718 -12.922004 1.2466028 0
2.163981 -10.728878 1.2605661 0
22.223083 -10.083944 1.2669263 0
22.215515 -9.9359503 1.226083 0
-8.9524851 -9.7384872 1.2499003 0
-8.4744825 -9.7402706 1.2024673 0
-1.6939178 -9.7175541 1.2782762 0
-1.5349736 -9.7184353 1.2591791 0
-1.4443387 -9.7226954 1.2608856 0
-1.3673728 -9.7335443 1.2567518 0
-8.9633055 -9.6671801 1.2283989 0
2.1665211 -9.4168148 1.2373917 0
2.1685591 -9.2400494 1.2724822 0
22.221386 -9.2312498 1.2960762 0
7.3214612 -9.0202055 1.2313436 0
2.8864665 -8.9734707 1.2502304 0
4.4554715 -8.9784651 1.2258799 0
4.822906 -8.9721212 1.2736154 0
7.0486555 -8.9884491 1.2158968 0
22.228817 -8.8220654 1.2645649 0
22.220228 -8.7536783 1.2349999 0
22.321917 -8.708519 1.2614493 0
24.844608 -8.7154818 1.2229922 0
26.268353 -8.7053785 1.2569706 0
22.278732 -8.6975002 1.2284319 0
24.33642 -8.6948776 1.2463293 0
26.288332 -8.6963005 1.236693 0
12.185224 -6.0255413 1.264712 0
12.260664 -6.0356379 1.2639372 0
26.426605 -6.0378895 1.244927 0
26.511135 -6.0892291 1.2918098 0
0.13468313 -5.9113264 1.2994568 0
0.27120781 -5.9318542 1.2045152 0
0.50262642 -5.9296913 1.2287495 0
0.61979532 -5.9236622 1.2153251 0
4.8580847 -5.9265332 1.2568145 0
5.1669693 -5.9145808 1.2575598 0
12.180364 -5.9604416 1.2669438 0
12.204575 -5.9888964 1.2137866 0
14.98374 -5.9129982 1.2623274 0
4.6944256 -5.8689985 1.2026031 0
4.7018251 -5.8923378 1.2298527 0
12.183916 -5.8747487 1.2560579 0
26.437752 -5.8255372 1.2077509 0
-3.7835221 -5.7169409 1.2023225 0
-3.790978 -5.5388689 1.2298051 0
0.63290739 -5.5199194 1.2968731 0
5.1748929 -5.5076857 1.2696881 0
12.156904 -5.5404387 1.2148856 0
14.992902 -5.5744553 1.2113829 0
0.56442308 -5.438478 1.2630875 0
0.62464118 -5.4769163 1.2302444 0
5.1773024 -5.4426193 1.2798241 0
14.986624 -5.442296 1.2546649 0
14.994209 -4.5154934 1.2059171 0
12.174509 -4.4473033 1.247847 0
14.978598 -4.4047494 1.2699689 0
26.423428 -4.4511242 1.2108783 0
26.424692 -4.3599052 1.2707185 0
26.427792 -4.2949352 1.2339187 0
26.514503 -4.2930236 1.2816852 0
12.190125 -4.1130152 1.20753 0
14.981282 -4.1491141 1.2325562 0
12.170961 -4.0853953 1.2094642 0
12.213345 -4.0844374 1.2331884 0
12.926419 -4.0585747 1.2124531 0
14.151283 -4.0911427 1.2939311 0
14.232294 -4.0803366 1.2313784 0
14.371639 -4.063601 1.2917938 0
14.950089 -4.0740356 1.2408584 0
-2.0278664 -2.852968 1.2670599 0
-1.9521762 -2.8725665 1.2309964 0
-0.27703524 -2.855042 1.2197419 0
-2.0291967 -2.7251856 1.2999296 0
-2.019402 -2.6519873 1.2496884 0
4.8699288 -2.5117946 1.2512152 0
4.9376388 -2.5193257 1.2375544 0
5.2258658 -2.5071774 1.2647421 0
5.3265562 -2.5112853 1.270255 0
5.6511598 -2.5163989 1.2531557 0
6.8603945 -2.5135045 1.2253747 0
6.9387536 -2.5196524 1.2385975 0
7.6551971 -2.5137005 1.2570659 0
4.8590388 -2.4378386 1.2655263 0
6.8545575 -2.4741545 1.2823503 0
4.8563013 -2.344193 1.2837899 0
7.6737332 -2.3676934 1.2727684 0
4.8615866 -2.2808456 1.2620037 0
-6.5670643 -2.1108818 1.2166289 0
4.8510456 -2.1567249 1.2867692 0
-0.24345446 -2.012043 1.2769905 0
7.6742449 -2.0729597 1.278644 0
-0.25463191 -1.9302517 1.2534873 0
4.8690844 -1.9456148 1.292397 0
-0.43278456 -1.8686655 1.2467273 0
-6.5762901 -1.5328622 1.2987947 0
7.6686797 -1.3261242 1.2117766 0
14.692186 -1.1705141 1.2573483 0
14.859109 -1.1484411 1.2508253 0
19.235176 -1.1378598 1.232527 0
4.8486819 -0.94093895 1.2261894 0
19.684048 -0.95635527 1.2453018 0
7.6598659 -0.81259757 1.2243822 0
19.212326 -0.85005736 1.2092159 0
23.597858 -0.8818146 1.2837923 0
19.200146 -0.77123439 1.2624959 0
4.8511701 -0.66461742 1.233161 0
19.232777 -0.67879832 1.2465852 0
23.612059 -0.64442289 1.2924511 0
4.8543329 -0.57920563 1.2576755 0
-6.6546307 -0.47690329 1.2856739 0
-6.8672938 2.1107283 1.2059193 0
-6.764308 2.1071887 1.2099092 0
-6.6769648 2.1114538 1.2222427 0
-5.2857456 2.1257777 1.2103639 0
-4.8540764 2.1382062 1.2162355 0
-3.8642702 2.1106169 1.2350168 0
-3.6733334 2.1227331 1.2328938 0
-3.5066414 2.1141391 1.2286029 0
-3.4316442 2.1238265 1.2251365 0
-3.0791759 2.1225295 1.2082925 0
-2.9623249 2.1189899 1.2261223 0
-2.7613811 2.1192412 1.2136053 0
-2.6499424 2.1087515 1.2228246 0
-2.5650077 2.1221662 1.2474841 0
-2.4471629 2.12918 1.2252663 0
-2.3684025 2.1412106 1.2760539 0
12.499939 2.3904951 1.2183483 0
14.578033 2.3870046 1.2741035 0
15.270361 2.3885343 1.2594652 0
17.567741 2.3838584 1.2339932 0
17.633545 2.3851616 1.2244596 0
17.651533 2.4236827 1.233017 0
12.496266 2.530875 1.2689101 0
12.514597 2.5977054 1.2290113 0
14.528217 2.5853181 1.2510061 0
21.195219 3.1337118 1.2317572 0
21.236795 3.1235175 1.2420378 0
21.313131 3.1304529 1.2470137 0
21.830372 3.1182792 1.2368759 0
21.958645 3.12818 1.2356203 0
28.787964 3.1341641 1.2435117 0
28.80327 3.1104064 1.2912658 0
-2.3572228 3.7598441 1.237718 0
-2.3525186 3.8702035 1.2452054 0
1.0555 4.4892159 1.2567068 0
1.1631756 4.4881616 1.2748864 0
1.2230089 4.487803 1.2321367 0
1.2123709 4.6391449 1.268486 0
5.571383 5.343852 1.2404835 0
7.2094727 5.3816843 1.2424846 0
12.498383 6.2820334 1.271652 0
9.7616835 6.3488235 1.2289395 0
9.8479509 6.3411021 1.2699074 0
10.334913 6.3217292 1.2470717 0
12.331367 6.3361936 1.2858713 0
12.446793 6.3600826 1.2783253 0
17.656855 6.3585706 1.2653655 0
17.729118 6.3666587 1.2440522 0
21.175144 6.3698072 1.2698593 0
9.7454081 6.9653378 1.2870897 0
2.1443081 -12.94754 1.3302135 0
7.2759299 -12.945937 1.34096 0
7.3595581 -12.945684 1.359844 0
7.4017892 -12.937894 1.3127432 0
7.5338435 -12.930174 1.3568718 0
17.067232 -12.915914 1.3702632 0
7.3264613 -12.85685 1.3983428 0
7.3414035 -12.783823 1.3307469 0
22.229195 -10.474051 1.3659285 0
7.299242 -10.027973 1.3650094 0
22.227543 -10.052973 1.3495278 0
22.231339 -9.8691082 1.3346051 0
-8.9668541 -9.7167358 1.358291 0
-8.8912334 -9.7410717 1.3831584 0
-1.7357273 -9.7269154 1.3909514 0
-1.6570859 -9.7237425 1.3418835 0
-1.569149 -9.7131376 1.3670721 0
-1.4628832 -9.7279215 1.3452846 0
-1.3604574 -9.7294054 1.3551933 0
-8.9673233 -9.6502037 1.3613379 0
-1.5334725 -9.6958923 1.3707254 0
-1.4461529 -9.6908855 1.3397512 0
2.1749873 -9.5497484 1.3776003 0
7.3198457 -9.0711098 1.3412845 0
-8.9833202 -8.911993 1.3827314 0
2.2417564 -8.9875851 1.3630846 0
2.3384385 -8.9887667 1.3964177 0
2.5206239 -8.9970884 1.3872023 0
4.5895882 -8.9827957 1.3174146 0
7.2979851 -8.9944611 1.3308817 0
22.217848 -8.9172544 1.3390964 0
22.226412 -8.8443346 1.3699733 0
22.223293 -8.7316236 1.3399229 0
22.326138 -8.6951294 1.37853 0
26.67877 -8.6845722 1.3888638 0
26.717266 -8.6983871 1.3896037 0
12.180323 -6.0189075 1.3540603 0
12.299135 -6.0392079 1.3112566 0
26.423679 -6.0431938 1.3495774 0
26.639404 -6.0856061 1.3205738 0
-3.9239972 -5.9265141 1.3485982 0
0.24871922 -5.9313641 1.3529875 0
12.174373 -5.9950213 1.3360724 0
14.992146 -5.9803352 1.3723997 0
0.13428545 -5.8872471 1.3982531 0
14.984451 -5.8375549 1.3066816 0
0.64256668 -5.7498159 1.3552352 0
0.63197136 -5.6103754 1.3814774 0
5.1636848 -5.5108433 1.3471674 0
0.618186 -5.4650249 1.3223029 0
4.8148723 -5.4403625 1.3448205 0
5.1735439 -5.4775438 1.3573393 0
-8.984581 -5.2823553 1.3247617 0
12.183493 -4.700572 1.3734016 0
12.173489 -4.6443276 1.3638884 0
26.425354 -4.4755197 1.3753155 0
12.186661 -4.3406329 1.3542527 0
26.423744 -4.3120298 1.3399373 0
28.820438 -4.3800521 1.3668317 0
12.156771 -4.2387171 1.3717964 0
14.971248 -4.2439947 1.3227354 0
28.52467 -4.285356 1.3370055 0
14.14548 -4.1969342 1.3514508 0
14.973497 -4.1745367 1.3598442 0
12.163389 -4.078723 1.3400087 0
12.931256 -4.0758595 1.326912 0
14.171158 -4.075974 1.3494706 0
14.550841 -4.0857964 1.3906956 0
14.965736 -4.0824814 1.3483419 0
-2.0316792 -2.8382506 1.3563818 0
-1.6461086 -2.8616104 1.3487946 0
-0.24536943 -2.8086972 1.3970747 0
-2.0311475 -2.7681758 1.3163701 0
-0.23415041 -2.7964253 1.3038188 0
4.8687654 -2.5147166 1.3306072 0
4.9350495 -2.521939 1.334262 0
5.0463133 -2.5205395 1.3353966 0
5.1279621 -2.5139575 1.3957715 0
5.2186651 -2.5263987 1.3109307 0
5.421741 -2.5197215 1.3366044 0
5.598454 -2.5318213 1.3600729 0
5.6768484 -2.5255532 1.3433676 0
5.7077727 -2.5161142 1.3610789 0
6.8550673 -2.5209813 1.3497581 0
6.9481173 -2.5162208 1.3192512 0
7.5301771 -2.5283146 1.3135427 0
7.6321239 -2.5219498 1.3413396 0
4.8689928 -2.4568882 1.3641144 0
5.6842256 -2.411099 1.3749663 0
7.673543 -2.4856 1.3319665 0
-2.0360818 -2.3819842 1.3185039 0
-0.24411106 -2.3606944 1.3665446 0
7.6653585 -2.3686192 1.3943329 0
7.700139 -2.3374534 1.37448 0
-6.5737886 -2.2399354 1.3355896 0
5.6942897 -2.2494645 1.3131546 0
7.6585765 -2.220943 1.350379 0
-2.0189648 -2.0060215 1.3502893 0
7.6851916 -1.2855544 1.3320806 0
14.662455 -1.1287965 1.3052534 0
14.915047 -1.1486945 1.3332443 0
19.326105 -1.128736 1.3355505 0
14.674922 -1.0408014 1.3912452 0
19.220558 -1.0844336 1.3836861 0
4.8643522 -0.84553331 1.3150227 0
23.592989 -0.839513 1.3915819 0
15.14119 -0.79786539 1.3136402 0
19.213554 -0.75332189 1.3520555 0
7.674304 -0.64032066 1.3673379 0
15.134317 -0.67536944 1.3186808 0
23.762959 -0.64549798 1.3925769 0
4.861722 -0.594634 1.3204978 0
7.6627603 -0.58915651 1.3205796 0
12.499901 2.3890276 1.325351 0
12.562638 2.3831244 1.375124 0
12.641755 2.3859718 1.3308252 0
12.797228 2.3717933 1.3797735 0
14.622519 2.3872981 1.379213 0
15.365168 2.3851342 1.3967369 0
16.899666 2.3863895 1.343063 0
16.928349 2.3842754 1.3889003 0
17.452641 2.383626 1.3635782 0
17.55797 2.3894134 1.3122308 0
12.485788 2.4226582 1.3737296 0
12.51233 2.425802 1.3644248 0
17.66571 2.4268377 1.3557287 0
28.799164 2.5906191 1.3436878 0
12.509457 2.6018009 1.3310761 0
17.654053 2.8647723 1.3461341 0
28.780025 2.8247187 1.3093083 0
-2.3578122 3.175663 1.3362695 0
21.253889 3.1316907 1.3347441 0
21.327728 3.1334362 1.3624552 0
21.517395 3.1283979 1.322211 0
21.6325 3.1458149 1.353753 0
28.696259 3.1635351 1.3118798 0
28.766239 3.1538863 1.3440372 0
28.801159 3.1058462 1.3925319 0
-8.9941826 4.2144461 1.376115 0
-8.9695654 4.4831867 1.3328878 0
1.0501548 4.4920039 1.3720906 0
1.1389636 4.4866714 1.3205286 0
1.2106442 4.4906559 1.35203 0
-9.0040703 4.5058355 1.3340106 0
1.1459103 4.501862 1.3644059 0
1.2036734 4.5072455 1.3424652 0
1.2252631 4.609889 1.3489037 0
1.5238791 5.272624 1.3338075 0
12.503182 6.2930307 1.3810951 0
17.646824 6.2724037 1.3635845 0
9.7776136 6.3374982 1.3385307 0
9.8004417 6.3475013 1.3343292 0
9.9027939 6.3427448 1.31806 0
12.503016 6.3441482 1.357533 0
17.649565 6.3483014 1.3732944 0
21.173553 6.3128505 1.3561286 0
9.7475281 7.0659204 1.3656331 0
7.2941346 -12.951874 1.4706026 0
7.3499203 -12.940331 1.4471271 0
22.25631 -10.887408 1.4242389 0
22.214546 -9.8794127 1.4738845 0
-8.912487 -9.7331696 1.4913094 0
-1.8604156 -9.7247639 1.437207 0
-1.7415738 -9.7385082 1.4735526 0
-1.5830688 -9.7282009 1.4050748 0
-1.4692094 -9.7294865 1.4506922 0
-1.360496 -9.7382698 1.4902273 0
-8.9750757 -9.6944733 1.462333 0
2.1808591 -9.5177879 1.4416378 0
2.1705179 -9.3675938 1.4787146 0
2.1642783 -9.1264906 1.4812324 0
7.3231106 -9.0561924 1.4273912 0
2.6169233 -8.9787703 1.4060247 0
4.7586861 -8.9848871 1.4139184 0
5.258913 -8.9765892 1.4800338 0
7.2774549 -8.9740753 1.4407746 0
7.3180747 -8.9747839 1.4654388 0
22.264164 -8.7175121 1.4320879 0
22.323206 -8.7258396 1.4343152 0
22.460505 -8.7135525 1.469411 0
22.524048 -8.7262383 1.4700444 0
22.990444 -8.7119913 1.4775012 0
23.690464 -8.7211285 1.469015 0
23.761019 -8.7083864 1.476856 0
25.150175 -8.7072849 1.427056 0
26.063396 -8.7030487 1.4874604 0
26.157738 -8.7141037 1.4479958 0
24.040646 -8.6993923 1.4090704 0
25.55632 -8.691268 1.4460174 0
25.85453 -8.690733 1.4568616 0
26.71859 -8.6948586 1.4201825 0
12.183104 -6.0216198 1.4351368 0
12.249396 -6.0317826 1.4533497 0
14.982528 -6.0118408 1.472614 0
26.440039 -6.0499525 1.43656 0
26.639378 -6.0815525 1.4190382 0
5.120213 -5.9273901 1.4190919 0
12.177252 -5.9948397 1.4684117 0
14.975468 -5.9535398 1.4961412 0
26.430937 -5.9575324 1.4213221 0
-3.7828579 -5.8553305 1.450809 0
0.63228416 -5.8448277 1.4428538 0
14.971464 -5.886961 1.429497 0
26.432514 -5.7574406 1.4749278 0
-3.782815 -5.691987 1.4465071 0
-3.8005395 -5.5411067 1.4445145 0
12.175636 -5.5753613 1.4968885 0
0.14135396 -5.4301348 1.4973466 0
0.56282252 -5.4261584 1.4625212 0
4.9587846 -5.4372449 1.452616 0
5.0651608 -5.4322867 1.4587152 0
14.987573 -5.4292355 1.4032133 0
12.149086 -5.3534217 1.4358072 0
14.982672 -5.3361225 1.4829434 0
26.418812 -5.3889718 1.4233924 0
14.974592 -5.2723193 1.4563332 0
14.979166 -4.8144474 1.4500054 0
26.413612 -4.8510075 1.4903202 0
26.426153 -4.7286439 1.4556783 0
26.416637 -4.6877499 1.4794374 0
12.171104 -4.5513024 1.4523737 0
26.429821 -4.5662346 1.4609693 0
26.434584 -4.4043927 1.4009629 0
26.413769 -4.3146873 1.4761539 0
26.519548 -4.3093419 1.4822073 0
14.974882 -4.2251577 1.4525127 0
26.409794 -4.2998829 1.4775295 0
28.313868 -4.2901001 1.4998844 0
12.169094 -4.1688538 1.4044309 0
14.973246 -4.1479025 1.4477446 0
12.166306 -4.062355 1.4305431 0
12.209934 -4.0842705 1.4294411 0
12.91334 -4.0518398 1.4787903 0
14.842363 -4.0720353 1.4208139 0
14.937691 -4.0653939 1.4757367 0
-0.2861414 -2.8693962 1.4438304 0
4.8659067 -2.5095572 1.4940537 0
4.9577684 -2.5124965 1.4651097 0
6.8719831 -2.5212026 1.4415675 0
6.9490857 -2.5167403 1.425265 0
7.1704798 -2.5293036 1.4458458 0
7.3589983 -2.5224414 1.4716721 0
7.590127 -2.513916 1.4169223 0
7.6597304 -2.516444 1.4490583 0
4.85709 -2.4350028 1.4353004 0
6.9137421 -2.4948964 1.4311776 0
7.657578 -2.4866278 1.4252839 0
4.8475628 -2.3229716 1.440832 0
7.6485767 -2.2650993 1.4175465 0
4.8545399 -2.0468516 1.4508005 0
7.6754837 -2.0647705 1.4980649 0
-0.25758886 -1.9256291 1.4941192 0
-0.24333477 -1.8926133 1.4309003 0
7.6575871 -1.7333369 1.456236 0
7.675602 -1.6340084 1.4924524 0
14.689669 -1.1427894 1.4303859 0
14.896768 -1.1588335 1.4583602 0
19.216629 -1.0232989 1.4876868 0
4.850666 -0.97482502 1.4587574 0
7.6660991 -0.80374926 1.4894891 0
19.687069 -0.71383554 1.4394139 0
23.603281 -0.77881002 1.4214307 0
4.8463883 -0.62857586 1.4380004 0
7.6591644 -0.62541056 1.4284838 0
14.976392 -0.6747582 1.4079748 0
15.037148 -0.67600894 1.4525508 0
15.119129 -0.66427064 1.4171339 0
12.537028 2.3886304 1.4332209 0
12.636295 2.3753181 1.4476514 0
17.566456 2.3830459 1.4415631 0
17.675337 2.3807464 1.4316251 0
12.509077 2.4506073 1.4493439 0
17.65498 2.4190316 1.4643898 0
12.505747 2.5170102 1.4278696 0
17.641392 2.7201788 1.4422578 0
12.493649 2.8073986 1.4807009 0
21.235872 3.1245236 1.4479139 0
21.369442 3.1252275 1.4009578 0
21.445759 3.1229048 1.4806885 0
21.512184 3.1252031 1.447192 0
28.752563 3.149106 1.4737335 0
28.804474 3.1168182 1.4693139 0
-8.9527264 4.4875355 1.4338704 0
0.63335037 4.4833789 1.4609406 0
1.0933799 4.4920759 1.4454248 0
1.1605104 4.4829454 1.4546475 0
1.21031 4.4869351 1.4322842 0
1.1683936 4.5004311 1.4590797 0
1.2223288 4.6504226 1.4505767 0
12.47368 5.7430582 1.4882686 0
17.642796 6.1436081 1.403181 0
12.514378 6.2520299 1.4688792 0
9.7585249 6.3499198 1.4713243 0
9.8246002 6.3368754 1.4899664 0
10.064524 6.3313837 1.4760946 0
12.439023 6.3394914 1.4358087 0
15.363918 6.3028622 1.4097281 0
17.656643 6.3561211 1.4405191 0
17.734547 6.3620291 1.4081634 0
21.155718 6.3670049 1.4751046 0
9.751133 6.8693547 1.4735379 0
9.7411575 6.9123073 1.4440689 0
9.7580023 7.0062518 1.4905418 0
2.1475229 -12.946787 1.5012318 0
7.2504649 -12.950367 1.524467 0
7.3013482 -12.931511 1.5438697 0
7.4151392 -12.946853 1.5020815 0
7.544158 -12.943224 1.520668 0
18.359516 -12.874531 1.5578002 0
2.1731439 -10.735541 1.5540156 0
7.2982769 -10.132276 1.5494202 0
7.3154774 -10.004825 1.5339746 0
-8.9692364 -9.7368336 1.52068 0
-8.4847832 -9.7386703 1.5931662 0
-1.8166194 -9.7327709 1.5261359 0
-1.5226524 -9.7235737 1.5386941 0
-1.4307424 -9.7263775 1.5562544 0
-1.3787335 -9.727644 1.5452145 0
-8.9767599 -9.6694489 1.5235263 0
-1.4085894 -9.6899815 1.5580581 0
7.3042288 -9.4797354 1.5314561 0
2.1707616 -9.1058302 1.5268028 0
7.321188 -9.15452 1.5239102 0
2.1596084 -9.0851011 1.5159172 0
5.2921109 -9.0497818 1.5595874 0
7.3234234 -9.0053291 1.525604 0
2.8813055 -8.966485 1.5920453 0
4.4710369 -8.9836254 1.5908839 0
7.28157 -8.9815922 1.5065514 0
25.931097 -8.7007027 1.5042635 0
12.182076 -6.0152555 1.5303253 0
12.237014 -6.0398521 1.5496 0
12.300802 -6.0259953 1.5570226 0
5.0749207 -5.9298801 1.5961974 0
5.1577158 -5.9208241 1.5684935 0
12.178531 -5.9704194 1.5481796 0
14.966352 -5.9046311 1.5812474 0
-3.778053 -5.7230682 1.5243158 0
-3.793694 -5.6724968 1.5534786 0
4.6926794 -5.6206408 1.5356228 0
-3.7840829 -5.5340891 1.53553 0
5.1709518 -5.5153008 1.5270529 0
0.17148018 -5.4521174 1.573451 0
5.1877084 -5.4510202 1.5683627 0
14.977746 -5.4472265 1.5601571 0
14.986582 -5.3765407 1.5305269 0
12.185899 -5.2684722 1.5156822 0
14.957967 -5.2467194 1.5693003 0
12.186792 -4.7667418 1.5461966 0
14.974314 -4.641686 1.5230356 0
12.177647 -4.3138194 1.5397217 0
27.611794 -4.3056464 1.5036067 0
12.182082 -4.2494793 1.5278479 0
14.151304 -4.2051811 1.5983874 0
14.980915 -4.2186327 1.5135076 0
27.931686 -4.2920098 1.5194998 0
28.161711 -4.2918549 1.5179586 0
14.976536 -4.1199226 1.5043252 0
12.920664 -4.0773997 1.5643368 0
14.167099 -4.0733781 1.5215931 0
14.969572 -4.0751042 1.5221996 0
4.8508854 -2.5258956 1.5919168 0
5.3187132 -2.5098524 1.5038359 0
5.4205904 -2.5312533 1.5052989 0
5.597815 -2.5310812 1.5075352 0
6.837379 -2.5120564 1.5646496 0
6.9511275 -2.5287561 1.5382669 0
7.2455368 -2.5182595 1.5286106 0
4.8497725 -2.4139214 1.5866487 0
7.6768637 -2.4996324 1.553079 0
4.8445883 -2.3450434 1.5484768 0
7.6728916 -2.3725901 1.5544922 0
4.8327942 -2.2587345 1.5418315 0
-0.22954559 -2.0177615 1.5667623 0
-0.37012148 -1.9014568 1.5895181 0
-0.26226282 -1.9316421 1.5744472 0
7.6758332 -1.944952 1.5768251 0
7.6725802 -1.7399626 1.5844581 0
7.6623955 -1.5548129 1.5546511 0
14.671938 -1.143198 1.5702283 0
4.8501859 -1.015708 1.5254245 0
14.684669 -1.0918841 1.5616484 0
23.607323 -1.0529146 1.5262743 0
4.8517933 -0.95135808 1.5417759 0
19.207178 -0.95998764 1.5195206 0
23.613792 -0.99351096 1.571701 0
7.6687403 -0.82348919 1.5371894 0
19.211113 -0.75213993 1.5609355 0
7.6541824 -0.67504096 1.5230671 0
14.954304 -0.67289573 1.5030757 0
7.6666489 -0.5864132 1.5618736 0
12.647745 2.3794394 1.5542219 0
13.27346 2.3912439 1.5086641 0
14.607714 2.3846626 1.5938791 0
14.950243 2.3823028 1.576462 0
15.053081 2.3882895 1.5026639 0
15.106358 2.3907089 1.5484202 0
17.495552 2.3804488 1.515373 0
17.655693 2.3977697 1.506833 0
12.492266 2.4276032 1.5980778 0
12.50752 2.4475138 1.5494833 0
14.84058 2.4113345 1.5178611 0
17.648308 2.4137766 1.5391804 0
12.502231 2.5722117 1.5950433 0
28.802521 2.9420385 1.5044219 0
21.242073 3.1313925 1.561257 0
21.350159 3.1216919 1.556312 0
28.75276 3.1547492 1.5556575 0
28.806351 3.1549459 1.5012879 0
1.1392692 4.4818635 1.5891941 0
1.2203407 4.49547 1.5843327 0
12.493497 6.037724 1.5044061 0
17.64249 6.2665763 1.5999051 0
9.7892742 6.3454394 1.5786885 0
9.8056564 6.3310695 1.599385 0
12.422343 6.3492498 1.5593562 0
12.530292 6.3361397 1.5190803 0
17.657341 6.3545628 1.5090671 0
17.727577 6.3675499 1.514919 0
21.176546 6.3452377 1.5597799 0
9.7327938 6.4842176 1.5991342 0
9.7342434 6.8560009 1.5976443 0
9.7524891 6.957407 1.5203449 0
9.7427816 7.052238 1.5340931 0
1.9568706 -12.9661 1.6340169 0
2.1336174 -12.973175 1.6670114 0
7.2520075 -12.956431 1.6257839 0
17.695423 -12.897501 1.6788173 0
22.263433 -10.838261 1.6452168 0
22.627174 -10.189212 1.6947274 0
7.3133869 -10.0024 1.6242393 0
7.3036175 -9.9760361 1.6589384 0
-8.9556341 -9.737731 1.6333565 0
-1.9768111 -9.7283964 1.6154864 0
-1.7458229 -9.7207909 1.695024 0
-1.6766081 -9.7296276 1.6443517 0
-1.5572782 -9.7150822 1.6261013 0
-1.4923633 -9.7320347 1.6803111 0
-1.3691373 -9.7252464 1.6615181 0
-1.5390234 -9.6978817 1.6352553 0
-1.496345 -9.6966734 1.6411756 0
2.1620202 -9.4130831 1.6091398 0
2.1737895 -9.0748405 1.6837513 0
7.3083606 -9.0484285 1.6626751 0
4.6222034 -8.9722443 1.6878296 0
4.7036295 -8.9746342 1.6306939 0
5.2314014 -8.985033 1.6785539 0
7.0422831 -8.9849453 1.6678209 0
7.3179269 -8.9948816 1.6580454 0
28.85586 -6.7928314 1.6354837 0
12.179195 -6.0306048 1.6365659 0
-3.9203999 -5.9305134 1.6454209 0
4.8883009 -5.9272699 1.603806 0
5.1128798 -5.9256039 1.6911572 0
12.178469 -5.9764919 1.6096627 0
14.971126 -5.9596853 1.6686368 0
0.6265173 -5.8638692 1.6604993 0
5.1621933 -5.8419228 1.6727377 0
12.187866 -5.8745065 1.680145 0
5.1569676 -5.5084896 1.6461424 0
-8.9941807 -5.4397874 1.6556134 0
5.1541591 -5.4791431 1.6933376 0
12.177769 -4.3385897 1.6258202 0
12.162922 -4.2475181 1.6298105 0
14.977511 -4.2952905 1.6165091 0
12.172997 -4.1717815 1.6556253 0
12.173687 -4.0682716 1.6547103 0
14.548382 -4.0803494 1.6155002 0
14.863193 -4.0647869 1.6450559 0
4.88868 -2.5094872 1.6882894 0
4.9894867 -2.5256391 1.6732508 0
5.0099678 -2.5095115 1.6676643 0
5.2124453 -2.5254302 1.6623561 0
6.860146 -2.5044823 1.6661167 0
6.9546571 -2.5243487 1.6090752 0
4.8590231 -2.442992 1.6119932 0
5.0793705 -2.4757805 1.6544513 0
5.6837716 -2.4141893 1.633136 0
7.6505427 -2.4420412 1.6690291 0
7.6695223 -2.3592365 1.6818763 0
5.6953015 -2.2481542 1.607177 0
7.667079 -2.270812 1.6789695 0
14.682138 -1.1548729 1.6556716 0
14.853821 -1.1519983 1.6609526 0
14.667747 -1.0592397 1.6544775 0
7.663105 -0.9625628 1.6968153 0
7.6386824 -0.81139827 1.6859442 0
23.598396 -0.83839947 1.6060851 0
23.611534 -0.80652064 1.6139178 0
7.6642928 -0.75474226 1.6682606 0
12.626313 2.3678195 1.6142422 0
12.740099 2.3815918 1.6891087 0
14.615133 2.3918729 1.6319107 0
14.942779 2.3870842 1.641649 0
15.04373 2.3821957 1.6412318 0
15.155109 2.3857505 1.6617584 0
16.934483 2.3901122 1.6076834 0
17.628128 2.3789968 1.6073253 0
12.519238 2.4366844 1.6447549 0
17.278921 2.4007645 1.6325501 0
17.639502 2.4396811 1.6345667 0
14.530432 2.5756402 1.6053709 0
17.654665 2.6018825 1.6555102 0
28.786806 2.85637 1.6489536 0
6.4096346 3.0189114 1.6074564 0
21.253416 3.1228802 1.6233811 0
21.322416 3.1302426 1.6615034 0
21.513531 3.1384363 1.6252636 0
