# .PCD v0.7 - Point Cloud Data file format
VERSION 0.7
FIELDS x y z intensity
SIZE 4 4 4 4
TYPE F F F F
COUNT 1 1 1 1
WIDTH 1458
HEIGHT 1
VIEWPOINT 0 0 0 1 0 0 0
POINTS 1458
DATA ascii
28.822416 -4.294003 2.2966518 0
-9.0139589 -4.1142726 2.2583554 0
-8.9900808 -4.0728168 2.3004553 0
28.795631 -4.0040002 2.3022945 0
28.821667 -4.097259 2.2867913 0
-9.0210142 -3.8789172 2.3028178 0
-8.9890652 -3.8855941 2.286037 0
28.797686 -3.8801222 2.3133817 0
28.817007 -3.9056866 2.2671561 0
-9.0162525 -3.7108274 2.3324842 0
-8.989994 -3.6947536 2.2840858 0
28.817488 -3.7091908 2.2913532 0
-9.0227308 -3.4816816 2.3127928 0
-8.9893084 -3.5044715 2.2690094 0
28.798264 -3.4572196 2.2971723 0
28.816986 -3.5143752 2.2925303 0
-9.0186377 -3.3472672 2.3065088 0
-8.9927359 -3.2886715 2.2816896 0
28.795633 -3.292417 2.2471607 0
28.815727 -3.2743201 2.3217208 0
-9.0091944 -3.0525916 2.2537212 0
-8.9902582 -3.071975 2.3184745 0
28.817234 -3.0806494 2.2859936 0
-9.0283222 -2.8815296 2.3263085 0
-8.9882259 -2.8590381 2.2845938 0
28.790298 -2.8548958 2.2727828 0
28.82271 -2.9108384 2.2726874 0
-9.0128803 -2.6129191 2.3036656 0
-8.9890518 -2.6628146 2.2569861 0
28.796721 -2.6899009 2.3094945 0
28.817497 -2.6817157 2.274302 0
-9.0258923 -2.4396019 2.3284781 0
-8.9927502 -2.4604943 2.2782204 0
28.794819 -2.5324886 2.3053193 0
28.81929 -2.5034864 2.2913337 0
-9.0067549 -2.3106737 2.2689128 0
-8.9871635 -2.2096562 2.2326417 0
28.79557 -2.2866304 2.2791059 0
28.819586 -2.3456182 2.2698243 0
-9.0126657 -2.1540251 2.280019 0
-8.9933434 -2.1140904 2.2595179 0
15.112542 -2.0796976 2.2949364 0
15.674718 -2.1086853 2.2467926 0
15.891119 -2.0653305 2.2423666 0
16.131655 -2.1027706 2.2961252 0
16.354427 -2.0578325 2.3616543 0
16.93306 -2.0262036 2.2816999 0
17.132114 -2.0948348 2.2827125 0
17.504629 -2.104002 2.2599201 0
17.717186 -2.0899487 2.2806265 0
17.891731 -2.050962 2.2842772 0
18.195202 -2.1366458 2.2635524 0
18.34874 -2.1063507 2.2863371 0
18.513691 -2.0857239 2.2520099 0
18.926115 -2.0683267 2.2649627 0
19.063824 -2.0897369 2.2733524 0
19.278862 -2.0975418 2.2949433 0
19.488815 -2.1060717 2.2942922 0
19.694613 -2.0946891 2.2756529 0
19.876019 -2.0740261 2.3083997 0
20.024509 -2.115063 2.305933 0
20.297674 -2.0925796 2.2852769 0
20.55372 -2.1073301 2.3165634 0
21.173832 -2.0905557 2.3222489 0
21.328632 -2.1005626 2.3349903 0
21.536669 -2.0819263 2.2904315 0
21.690329 -2.1062531 2.3006241 0
21.863079 -2.0829518 2.3178456 0
22.111282 -2.0854142 2.2998757 0
22.260389 -2.0892515 2.3195553 0
22.520884 -2.077935 2.3421297 0
22.695526 -2.0936844 2.3342192 0
22.905544 -2.1020861 2.3629136 0
23.085457 -2.0898385 2.3130016 0
23.462936 -2.0865457 2.3441963 0
23.72168 -2.0721021 2.329721 0
24.077513 -2.0879047 2.3323905 0
24.216566 -2.0840735 2.3612466 0
24.774693 -2.1057701 2.3339858 0
24.89138 -2.0666494 2.3440168 0
28.814289 -2.111304 2.2695861 0
-9.013382 -1.8701973 2.2907636 0
-8.9905615 -1.8987845 2.2780721 0
15.910901 -1.8601122 2.2481258 0
16.927847 -1.907333 2.2839744 0
17.914253 -1.8774959 2.301888 0
18.919802 -1.8935788 2.2857342 0
19.912043 -1.8984617 2.3003623 0
20.923567 -1.9366704 2.303777 0
21.892748 -1.8886989 2.3108394 0
23.884481 -1.8416996 2.3359787 0
24.89735 -1.8494592 2.3571901 0
28.794987 -1.9221199 2.3071041 0
28.813986 -1.8596766 2.2903504 0
-9.0095634 -1.7136625 2.2861004 0
-8.9925146 -1.6658329 2.2429917 0
15.912849 -1.6809511 2.2554569 0
16.913708 -1.750726 2.2669399 0
17.905426 -1.7144259 2.3551145 0
18.924623 -1.6927228 2.2746415 0
19.910736 -1.6594967 2.3040855 0
20.909616 -1.7185087 2.3323107 0
21.907038 -1.6838424 2.314136 0
22.912561 -1.6869726 2.3211074 0
23.890522 -1.6999269 2.3477964 0
24.903048 -1.7441877 2.3557951 0
28.790314 -1.7610226 2.350342 0
28.812103 -1.6874247 2.3018026 0
-9.0136528 -1.4907811 2.3096526 0
-8.9921932 -1.486551 2.2496982 0
16.922638 -1.5952504 2.2009199 0
17.907078 -1.5771852 2.2325282 0
19.903473 -1.5936756 2.324079 0
20.923851 -1.5761534 2.2650435 0
24.899563 -1.5707105 2.2898777 0
28.794516 -1.4702694 2.3187914 0
28.813765 -1.5112233 2.2891519 0
-9.0112534 -1.3082719 2.3081102 0
-8.9918766 -1.2457469 2.2200327 0
28.794676 -1.3182462 2.3051574 0
28.815041 -1.2712975 2.2970088 0
-9.0099993 -1.0888093 2.3030527 0
-8.99582 -1.0993714 2.3174222 0
14.684311 -1.1166059 2.3035347 0
14.903086 -1.1510825 2.2805204 0
15.093454 -1.1133716 2.2654421 0
19.195976 -1.0979742 2.3072586 0
19.263887 -1.1039013 2.3057253 0
19.504955 -1.1412839 2.3072174 0
19.653543 -1.1364646 2.3967617 0
23.679979 -1.1081548 2.2626467 0
23.951551 -1.1325488 2.2620318 0
24.018463 -1.1194233 2.2767627 0
28.792929 -1.0876305 2.2771416 0
28.812721 -1.1130624 2.3126888 0
-9.0095301 -0.87201416 2.3258257 0
-8.9875517 -0.87736607 2.2909553 0
14.664285 -0.88111401 2.3035271 0
15.117105 -0.93085206 2.2986689 0
19.216423 -0.92329007 2.2925775 0
19.678011 -0.82811117 2.2898846 0
23.597515 -0.8594473 2.3164668 0
23.614365 -0.91110718 2.2476442 0
28.793303 -0.89436954 2.2789738 0
28.812958 -0.91015017 2.2972074 0
-9.0227146 -0.7101751 2.2858891 0
-8.9913864 -0.68151778 2.2797718 0
14.664339 -0.73538905 2.2677655 0
14.820823 -0.6740678 2.3797171 0
15.102203 -0.74666291 2.3129299 0
19.194458 -0.71565217 2.2570653 0
19.22506 -0.72633129 2.3147519 0
19.584991 -0.65093958 2.2685843 0
19.661066 -0.70851052 2.2969391 0
23.622849 -0.68848902 2.2778561 0
23.886335 -0.63891888 2.2770407 0
28.797918 -0.63416409 2.2937934 0
28.817513 -0.68463981 2.2856066 0
-9.008605 -0.47051692 2.3270745 0
-8.9917269 -0.52293456 2.2999761 0
28.794291 -0.46858352 2.2685337 0
28.81209 -0.47197592 2.2817965 0
-9.007597 -0.29488668 2.2731271 0
-8.9896116 -0.34985059 2.3145316 0
28.799103 -0.31073213 2.3194172 0
28.815779 -0.32870361 2.3218176 0
-9.0132551 -0.1033196 2.3456361 0
-8.989995 -0.096764326 2.2942922 0
28.795576 -0.10653996 2.2256117 0
28.815355 -0.073221155 2.3123264 0
-9.0115442 0.10447263 2.3058751 0
-8.9947796 0.15508299 2.2783718 0
28.791115 0.11605421 2.2863178 0
28.812363 0.04560712 2.2953646 0
-9.0068417 0.30493724 2.3183312 0
-8.994853 0.36238971 2.2940233 0
28.795961 0.30302873 2.3115468 0
28.815645 0.27970579 2.2985325 0
-9.0101614 0.49214333 2.3056247 0
-8.9939976 0.49461073 2.2913303 0
28.794825 0.51087916 2.2324979 0
28.811222 0.5234921 2.3359246 0
-9.007637 0.70172328 2.328094 0
-8.99366 0.71361691 2.3027961 0
28.793489 0.66715074 2.2692299 0
28.813829 0.65854168 2.2984917 0
-9.0080128 0.92026693 2.2854102 0
-8.9937515 0.93178058 2.2783654 0
28.798378 0.86332083 2.2166553 0
28.808617 0.90234154 2.3172152 0
-9.0050097 1.1068051 2.3115001 0
-8.9908438 1.0778711 2.2653241 0
28.796137 1.0996424 2.3213565 0
28.809677 1.1383784 2.2761343 0
-9.013608 1.3106618 2.3204794 0
-8.994338 1.3059621 2.2884638 0
28.791931 1.2710621 2.2867002 0
28.81781 1.314937 2.2830715 0
-9.0053368 1.4966409 2.348974 0
-8.9915209 1.5266491 2.2814708 0
28.790716 1.5219135 2.2831829 0
28.809216 1.4847172 2.2911668 0
-9.0150576 1.6987758 2.3021543 0
-8.9943523 1.7471178 2.2450466 0
28.786169 1.704805 2.2764745 0
28.811947 1.6913294 2.3140676 0
-9.0194016 1.855516 2.3151932 0
-8.990591 1.9395119 2.2614319 0
28.789368 1.9199909 2.2814569 0
28.810356 1.887882 2.2978625 0
-9.009305 2.1425321 2.3312109 0
-8.9934883 2.1149836 2.3004158 0
28.785278 2.0956326 2.3043768 0
28.815104 2.0934856 2.3306048 0
-9.0142603 2.2646906 2.3186643 0
-8.987648 2.2992918 2.2703254 0
28.790621 2.3016973 2.3092778 0
28.813826 2.3010545 2.2854273 0
-9.0097637 2.4994457 2.3338654 0
-8.993783 2.5038526 2.3145397 0
28.78404 2.5010569 2.3312438 0
28.816391 2.4662638 2.337981 0
-9.0227747 2.7093141 2.3044324 0
-8.9906311 2.6995575 2.2808061 0
28.782949 2.675056 2.3325481 0
28.818823 2.7036006 2.3000882 0
-9.0063038 2.9387915 2.3064804 0
-8.9908772 2.8860843 2.262681 0
28.792059 2.9034193 2.2517948 0
28.81584 2.8897862 2.3032746 0
-9.0159016 3.1354463 2.3111849 0
-8.9931164 3.1043901 2.2653692 0
21.302048 3.1374264 2.2996809 0
21.50794 3.1328921 2.3215659 0
21.693554 3.1400728 2.2932882 0
21.905701 3.1453507 2.3185687 0
22.100327 3.1327248 2.3160002 0
22.304829 3.1441212 2.3272526 0
22.50086 3.139183 2.2781954 0
22.668428 3.1443603 2.3163488 0
22.874144 3.143343 2.2866969 0
23.065889 3.1443563 2.2856052 0
23.280331 3.1438527 2.2938631 0
23.529007 3.143779 2.323355 0
23.684622 3.1474741 2.3349199 0
23.8916 3.1450336 2.3078039 0
24.076725 3.1446042 2.3011692 0
24.287176 3.1529472 2.3535192 0
24.467545 3.1468186 2.3321691 0
24.712578 3.1500201 2.2564118 0
24.885056 3.1480839 2.2701774 0
25.093922 3.1505325 2.2308137 0
25.320768 3.1496727 2.269105 0
25.541216 3.1500292 2.2682068 0
25.671833 3.1496787 2.2829804 0
25.895689 3.152982 2.2881777 0
26.114754 3.1489964 2.2864876 0
26.289679 3.1575198 2.3240619 0
26.490656 3.1501777 2.338496 0
26.720533 3.1537316 2.3161612 0
26.900908 3.1599267 2.3374636 0
27.119764 3.1524372 2.287575 0
27.317059 3.1589367 2.2939897 0
27.478836 3.1532097 2.2949841 0
27.707754 3.157449 2.3099089 0
27.90346 3.1510746 2.3202653 0
28.13081 3.1599991 2.297236 0
28.337692 3.1597228 2.2951074 0
28.515718 3.1586659 2.257705 0
28.754795 3.1017947 2.2642426 0
28.815847 3.0800762 2.2958245 0
-9.0142441 3.3021636 2.2696769 0
-8.9969234 3.3011429 2.3288112 0
21.189632 3.2924824 2.3196135 0
21.206085 3.2910035 2.2724986 0
-9.0134726 3.502074 2.2694523 0
-8.9902086 3.4687648 2.3224792 0
21.190037 3.5312457 2.2659726 0
21.217817 3.4404109 2.2546468 0
-9.0180655 3.6559794 2.2980242 0
-8.994626 3.7121077 2.2533631 0
21.188908 3.7542102 2.3577926 0
-9.0169401 3.9415436 2.2774863 0
-8.9945755 3.8998175 2.352284 0
21.188694 3.9096611 2.2675223 0
-9.0145693 4.1073751 2.2992766 0
-8.9918089 4.0250373 2.3269875 0
21.186729 4.0581241 2.2404234 0
21.20808 4.1279335 2.2776654 0
-9.013938 4.3118763 2.3285406 0
-8.9966421 4.2241254 2.2030122 0
21.186197 4.2655377 2.3249276 0
21.207077 4.2720304 2.2810223 0
-9.0184832 4.5153203 2.302181 0
-8.9995003 4.4703074 2.2264469 0
21.185146 4.4779963 2.3174019 0
21.204111 4.4794903 2.304245 0
-9.0240517 4.7211695 2.318182 0
21.176115 4.6398196 2.282937 0
21.206327 4.6881828 2.2753894 0
-9.0193501 4.8873906 2.2949212 0
-8.9962873 4.87672 2.2758596 0
21.182577 4.8537736 2.2906656 0
21.191938 5.0792475 2.2524796 0
21.20591 5.0439372 2.3302195 0
21.191671 5.2020588 2.3599861 0
21.194443 5.9295149 2.2221055 0
9.7635603 6.3347969 2.3085778 0
9.9164963 6.3378553 2.318562 0
10.098883 6.3405924 2.3057861 0
10.320773 6.345252 2.3029125 0
10.515018 6.3423724 2.3115687 0
10.69418 6.3400354 2.2824211 0
10.90062 6.3403664 2.2975874 0
11.113591 6.3447886 2.2967191 0
11.313502 6.3440452 2.2913072 0
11.522037 6.3401484 2.2787461 0
11.709422 6.3379369 2.2991419 0
11.914809 6.3374901 2.2989588 0
12.11582 6.3423829 2.3218207 0
12.2961 6.3431931 2.3326471 0
12.494352 6.3442655 2.3037317 0
12.704151 6.3392601 2.3154094 0
12.896301 6.3434381 2.3228202 0
13.085419 6.3437252 2.3394153 0
13.27272 6.3508401 2.351506 0
13.498824 6.3363838 2.3561275 0
13.985926 6.3406281 2.3657274 0
14.725294 6.3537478 2.2257574 0
15.13887 6.3477325 2.3174276 0
15.339146 6.3471088 2.2477438 0
15.557556 6.3625641 2.2481513 0
15.779671 6.3471823 2.2442679 0
15.995957 6.3691158 2.2466764 0
16.142853 6.3369465 2.3578358 0
16.2342 6.3511014 2.3154707 0
16.485001 6.345489 2.3140175 0
16.768284 6.3405523 2.2798471 0
16.914141 6.34659 2.3454237 0
17.103611 6.3466635 2.2803378 0
17.310192 6.3491263 2.2359869 0
17.48131 6.3533888 2.226274 0
17.727341 6.364378 2.2648771 0
17.927183 6.3749185 2.2654901 0
18.129776 6.368216 2.2634792 0
18.307852 6.352942 2.2448168 0
18.495129 6.3639507 2.2853293 0
18.686396 6.3650107 2.2837255 0
18.901085 6.3663497 2.2910953 0
19.109211 6.3597517 2.2998679 0
19.319071 6.3660669 2.3426979 0
19.516794 6.3686523 2.3196938 0
19.711754 6.3666863 2.3152344 0
19.884106 6.3676171 2.2914925 0
20.07996 6.3715611 2.2986922 0
20.302671 6.3734779 2.31146 0
20.520599 6.3632603 2.3032079 0
20.695364 6.3580136 2.2993007 0
20.918808 6.3693376 2.276861 0
21.138622 6.3282785 2.2710686 0
10.049812 -13.585536 2.4203553 0
10.048509 -13.309238 2.5000002 0
10.049937 -13.101206 2.4736991 0
-1.2933187 -12.961162 2.4751318 0
-1.0689096 -12.955487 2.484134 0
-0.84810483 -12.963879 2.4726524 0
-0.68929768 -12.965756 2.5055141 0
-0.50665116 -12.964487 2.4911103 0
-0.26340669 -12.971942 2.4802039 0
-0.087364338 -12.965869 2.4698238 0
0.10967386 -12.963856 2.4685347 0
0.32271475 -12.970622 2.4748359 0
0.52153462 -12.967674 2.4853992 0
0.71154243 -12.975595 2.5060792 0
0.94737625 -12.964516 2.4900486 0
1.1230776 -12.974623 2.4713137 0
1.2995719 -12.967303 2.4964323 0
1.5107764 -12.963598 2.4844396 0
1.7216064 -12.964761 2.4877756 0
1.9304084 -12.965714 2.491358 0
2.12396 -12.965268 2.482044 0
2.3297248 -12.965145 2.492171 0
2.4853237 -12.963773 2.5102677 0
2.6672421 -12.959772 2.4935594 0
2.9003274 -12.960423 2.5093615 0
3.0790052 -12.962736 2.4767437 0
3.2815435 -12.961539 2.5127301 0
3.5174243 -12.957543 2.4828415 0
3.6860919 -12.955945 2.4593406 0
3.9111011 -12.955393 2.4939997 0
4.1020203 -12.958799 2.4999254 0
4.2998805 -12.955317 2.515559 0
4.4522018 -12.949781 2.5300479 0
4.7172527 -12.951523 2.538229 0
4.8635588 -12.947883 2.5128503 0
5.0750699 -12.935712 2.5171287 0
5.2964506 -12.941274 2.4997869 0
5.4461441 -12.952078 2.5309753 0
5.7475514 -12.952787 2.5582831 0
5.9360232 -12.946488 2.5420282 0
6.1236181 -12.94962 2.5471826 0
6.2612352 -12.951196 2.5359483 0
6.471755 -12.949407 2.5063012 0
6.688787 -12.941755 2.5457261 0
6.9196916 -12.938789 2.5408924 0
7.0978074 -12.944705 2.5004535 0
7.2958603 -12.938245 2.5231168 0
7.4780393 -12.945961 2.5105536 0
7.6630187 -12.934597 2.5133486 0
7.8733044 -12.941137 2.5108562 0
8.0997334 -12.942737 2.5051262 0
8.290884 -12.944183 2.5151711 0
8.4835529 -12.944738 2.5125182 0
8.6857376 -12.942332 2.5015259 0
8.8635435 -12.946112 2.5070281 0
9.0648432 -12.943866 2.4882514 0
9.2979879 -12.936184 2.5060248 0
9.4733095 -12.944483 2.4797704 0
9.6871586 -12.942445 2.4968951 0
9.9105406 -12.950628 2.4882867 0
10.041984 -12.956516 2.5024796 0
-1.3813641 -12.773387 2.4009182 0
-1.379207 -12.4292 2.5214713 0
-1.3801427 -11.869634 2.5325646 0
-1.3751583 -11.442706 2.4596965 0
28.798384 -11.420793 2.4903724 0
28.83827 -11.463772 2.4874475 0
-1.3789806 -11.235895 2.5263174 0
28.835226 -11.273658 2.5007875 0
-1.4143238 -11.143933 2.4543149 0
-1.3834049 -11.097545 2.5254579 0
28.798817 -11.01661 2.4261916 0
28.841513 -11.141891 2.5072358 0
-1.3944592 -10.894417 2.5230403 0
28.835075 -10.895208 2.503962 0
-1.4115677 -10.787664 2.4247453 0
28.834808 -10.69035 2.4831412 0
-1.4007568 -10.506321 2.4480886 0
-1.398654 -10.512969 2.479084 0
28.832016 -10.503398 2.5013163 0
28.831951 -10.287699 2.5030994 0
28.838867 -10.110579 2.4892809 0
-1.3908606 -9.8384771 2.4813297 0
28.835358 -9.9104528 2.5080209 0
-9.0032949 -9.6441088 2.5001554 0
-8.9482679 -9.6769934 2.497844 0
-8.6978035 -9.7298288 2.4736879 0
-8.5163116 -9.7393436 2.4860938 0
-8.2592649 -9.7324238 2.4925942 0
-8.1053514 -9.7292089 2.4678183 0
-7.8935342 -9.7299757 2.4657984 0
-7.647644 -9.733346 2.4617965 0
-7.4581475 -9.7373314 2.526638 0
-7.3113303 -9.745986 2.4433861 0
-7.1071749 -9.7266083 2.4793544 0
-6.9127355 -9.7434978 2.4557595 0
-6.6901846 -9.7191372 2.4561107 0
-6.5019989 -9.7120056 2.5192673 0
-6.2531023 -9.7457314 2.5109868 0
-6.0748801 -9.7223396 2.5350347 0
-5.9040046 -9.7262869 2.5065408 0
-5.6890678 -9.7311621 2.552042 0
-5.4700217 -9.7248163 2.542249 0
-5.2647715 -9.7121201 2.4976699 0
-5.0797963 -9.7226734 2.4660945 0
-4.8811154 -9.710619 2.5127778 0
-4.6816478 -9.7134247 2.4769237 0
-4.4555621 -9.7197943 2.4808009 0
-4.3028617 -9.719389 2.4944127 0
-4.1004124 -9.7193308 2.4818769 0
-3.855201 -9.7159052 2.5460262 0
-3.6736407 -9.7156811 2.4950676 0
-3.4669943 -9.7237282 2.5159163 0
-3.236351 -9.7186518 2.4936903 0
-3.0696714 -9.7047739 2.4891565 0
-2.9244037 -9.7180729 2.5006137 0
-2.6781037 -9.7214308 2.5140855 0
-2.4371946 -9.7237682 2.4808726 0
-2.2454274 -9.7248917 2.4612982 0
-2.0589483 -9.7219 2.5700688 0
-1.829248 -9.6985178 2.594487 0
-1.7215284 -9.719533 2.5614843 0
-1.5170517 -9.7133579 2.5396857 0
28.838156 -9.7353697 2.4951913 0
-9.0049725 -9.4757538 2.5059791 0
-8.9908094 -9.5066566 2.4864738 0
28.839033 -9.5091667 2.5262392 0
-9.0079298 -9.2948599 2.5014644 0
-8.9862432 -9.2917099 2.4731874 0
28.795195 -9.2689085 2.5788207 0
28.833679 -9.2728882 2.5104282 0
-9.0087109 -9.1224403 2.5355363 0
-8.9826593 -9.0621777 2.453954 0
28.84071 -9.0628376 2.5386541 0
-9.0115871 -8.9262218 2.5551848 0
-8.9827776 -8.9233341 2.475117 0
28.829887 -8.9405212 2.489583 0
-9.0087862 -8.7402887 2.5077093 0
-8.9924059 -8.7077246 2.4931867 0
28.833652 -8.7236471 2.5114732 0
-9.0052338 -8.4707661 2.5293787 0
-8.9932938 -8.5228539 2.4791346 0
28.831251 -8.5161114 2.5156839 0
-9.0066967 -8.3258886 2.5117137 0
-8.9905596 -8.2864122 2.4850693 0
28.822803 -8.2958479 2.5050836 0
-9.0065718 -8.0947647 2.4982729 0
-8.991785 -8.0988808 2.4923043 0
28.826281 -8.1056137 2.4988477 0
-9.0082607 -7.9622445 2.4634404 0
-8.9907494 -7.8842425 2.5049696 0
28.826126 -7.8955436 2.4786854 0
-9.012208 -7.7492003 2.5038779 0
-8.9921608 -7.6950073 2.4910188 0
28.832075 -7.6942778 2.4834027 0
-9.0075026 -7.4590082 2.5103939 0
-8.9908266 -7.5277548 2.5013061 0
28.833054 -7.4846396 2.4723563 0
-9.0116234 -7.2863445 2.468817 0
-8.9938526 -7.3148456 2.5112467 0
28.824083 -7.3146691 2.4969513 0
-9.0066099 -7.0998445 2.4984837 0
-8.992588 -7.1072078 2.4664044 0
28.82654 -7.1031899 2.4887917 0
-9.0068789 -6.8802724 2.5099294 0
-8.9908667 -6.889967 2.4768591 0
28.826559 -6.8798137 2.4808848 0
-9.0080776 -6.714169 2.510577 0
-8.9887533 -6.7083011 2.476192 0
28.818624 -6.7459393 2.4853239 0
-9.0067797 -6.481308 2.5357068 0
-8.9891577 -6.516078 2.4762044 0
28.823629 -6.530436 2.5026865 0
-9.0030594 -6.2879233 2.5222955 0
-8.9898472 -6.3221898 2.482543 0
28.822981 -6.324091 2.5262117 0
-9.0063057 -6.1053944 2.5044577 0
-8.9921589 -6.1233082 2.5007036 0
28.797134 -6.1159344 2.5914471 0
28.826553 -6.0969334 2.4969053 0
-9.0045052 -5.8983622 2.4984434 0
-8.9910622 -5.9067903 2.4914422 0
-4.1399632 -5.934701 2.4263291 0
-3.8658602 -5.9077053 2.5019424 0
-3.789716 -5.8894792 2.4274554 0
0.16351318 -5.9323864 2.4270105 0
0.28857374 -5.9430442 2.5913396 0
0.55833149 -5.889308 2.5246356 0
0.61021644 -5.8906159 2.5326335 0
4.6750374 -5.8916998 2.5335317 0
4.8326416 -5.9338121 2.5735645 0
5.1419687 -5.9009953 2.4764647 0
28.822119 -5.8811574 2.4865756 0
-9.0022612 -5.7118225 2.5170517 0
-8.9897528 -5.690774 2.4840417 0
-3.806478 -5.6958408 2.5242548 0
-3.7825899 -5.6891479 2.4238729 0
0.59508532 -5.6938143 2.5436735 0
0.60521549 -5.7092452 2.5081706 0
4.6787281 -5.7097678 2.5375602 0
5.1407709 -5.7358255 2.4790642 0
28.825701 -5.71942 2.5051777 0
-9.0085917 -5.4844079 2.4764612 0
-8.9902945 -5.506989 2.4839666 0
-3.8476212 -5.503664 2.4543912 0
-3.7942533 -5.5047016 2.4025707 0
0.33021784 -5.4319773 2.5300627 0
0.58730477 -5.5367203 2.5301955 0
0.60910702 -5.5571613 2.5160785 0
4.6860943 -5.5090256 2.5341334 0
4.9284172 -5.4438539 2.4840364 0
5.1459274 -5.5387044 2.4670646 0
28.821434 -5.4821439 2.4993815 0
-9.0087214 -5.3187041 2.5172021 0
-8.993248 -5.2800369 2.4981577 0
28.821049 -5.2761292 2.5080543 0
-9.0120306 -5.1079226 2.4997294 0
-8.9932528 -5.1181464 2.4904475 0
28.822063 -5.0754323 2.5109506 0
-9.0059462 -4.9316468 2.5157869 0
-8.9947519 -4.8925495 2.4743061 0
28.819899 -4.8883214 2.5401878 0
-9.0239849 -4.7706137 2.4333699 0
-8.9898138 -4.6574512 2.4673581 0
28.821407 -4.6905541 2.53122 0
-9.035284 -4.4596691 2.4574969 0
-8.9853687 -4.4897118 2.4940557 0
28.79353 -4.5861697 2.4124296 0
28.823687 -4.4798436 2.5200212 0
-9.0361691 -4.2469535 2.4124451 0
-8.9877729 -4.3181071 2.4949095 0
28.819798 -4.302084 2.5396197 0
-9.0022669 -4.1567035 2.5209942 0
-8.9942102 -4.1053119 2.5731921 0
28.799839 -4.1524434 2.5950966 0
28.81752 -4.1322451 2.4755499 0
-9.0229082 -3.9258556 2.4783645 0
-8.9915037 -3.9266136 2.5007002 0
28.790318 -3.8035526 2.4705613 0
28.82218 -3.9199951 2.501564 0
-9.0114288 -3.6858177 2.4808288 0
-8.9881554 -3.7077842 2.5126607 0
28.797789 -3.7536817 2.5188537 0
28.828037 -3.6843677 2.5246091 0
-9.0174913 -3.4547741 2.4921465 0
-8.9856987 -3.4829295 2.5044966 0
28.798431 -3.5382731 2.4852815 0
28.818859 -3.4931498 2.49722 0
-9.0134201 -3.3035221 2.4930866 0
-8.9928913 -3.3009951 2.495301 0
28.818502 -3.295615 2.4875391 0
-9.0007772 -3.1410739 2.4754138 0
-8.986002 -3.1022353 2.5411127 0
28.797598 -3.1950395 2.51509 0
28.81772 -3.0746882 2.4824836 0
-9.009243 -2.9344697 2.5161607 0
-8.9915438 -2.9271779 2.5161734 0
28.796074 -2.9142332 2.5414698 0
28.818899 -2.919481 2.48049 0
-9.0095539 -2.6730561 2.543612 0
-8.9891567 -2.7217731 2.5229027 0
28.794403 -2.6797714 2.5449748 0
28.823689 -2.6739492 2.4706669 0
-9.0142412 -2.5003123 2.5203054 0
-8.9852667 -2.5057383 2.5154157 0
28.794846 -2.4510751 2.4901862 0
28.814417 -2.4923725 2.5463092 0
-9.0034971 -2.3580949 2.5346785 0
-8.9870729 -2.3143811 2.5039213 0
28.795918 -2.3208704 2.4827118 0
28.809534 -2.3039091 2.4563231 0
-9.0087128 -2.0990281 2.4745793 0
-8.9859018 -2.0899398 2.5117164 0
28.797104 -2.1509728 2.5003691 0
28.814493 -2.0999253 2.4695325 0
-9.0113478 -1.8778044 2.5005405 0
-8.9846258 -1.8759822 2.4888837 0
28.796144 -1.9795756 2.518194 0
28.814583 -1.8997462 2.4932637 0
-9.0135603 -1.7059749 2.454253 0
-8.9888277 -1.6676362 2.5230694 0
22.907829 -1.6924988 2.4289808 0
28.787758 -1.632237 2.5543928 0
28.812634 -1.6927693 2.4617829 0
-9.0237064 -1.5325321 2.5325081 0
-8.9873571 -1.4805188 2.4831812 0
28.784248 -1.4460077 2.5013521 0
28.810484 -1.5157769 2.463887 0
-9.0065813 -1.3199655 2.4852822 0
-8.9832678 -1.3110192 2.4710004 0
28.792372 -1.3069882 2.4670973 0
28.812538 -1.3398695 2.4732606 0
-9.0103884 -1.0852287 2.4706678 0
-8.9883509 -1.0400451 2.4331424 0
14.683409 -1.0767158 2.491873 0
14.910769 -1.1532835 2.5058451 0
15.097851 -1.117762 2.5208364 0
19.231993 -1.0918623 2.4968252 0
19.537033 -1.142372 2.4302955 0
19.65032 -1.131411 2.4285746 0
23.599827 -1.1203475 2.4107337 0
23.679428 -1.097441 2.5059662 0
23.932379 -1.1289674 2.4978962 0
24.100983 -1.1180284 2.4723382 0
28.790159 -1.0628009 2.4804153 0
28.808558 -1.1283617 2.4763997 0
-9.0112524 -0.88291758 2.4539616 0
14.666548 -0.90092456 2.5141025 0
15.107089 -0.86781168 2.5267045 0
19.194118 -0.93949509 2.5081453 0
19.20714 -0.90915269 2.4951465 0
23.595474 -0.90266943 2.5161695 0
23.613365 -0.91398704 2.5045409 0
28.789629 -0.86546153 2.4558537 0
28.811213 -0.89491892 2.5018361 0
-9.0117588 -0.70375127 2.4703381 0
-8.9942245 -0.71769536 2.4838538 0
14.665951 -0.721668 2.531039 0
14.9755 -0.66444063 2.5190694 0
15.124285 -0.7334125 2.4801445 0
19.191019 -0.70292312 2.5114717 0
19.212107 -0.73075879 2.4997988 0
23.594158 -0.75727588 2.4361799 0
23.616236 -0.7248559 2.5193155 0
28.791086 -0.70458764 2.504642 0
28.817591 -0.68371266 2.4776864 0
-9.0141029 -0.49408445 2.4743667 0
-8.9904518 -0.43737 2.522773 0
28.790834 -0.48150817 2.5040805 0
28.813499 -0.5087415 2.4929612 0
-9.0109205 -0.36228633 2.4759729 0
-8.996151 -0.24062406 2.4806199 0
28.815109 -0.28220347 2.4964719 0
-9.016408 -0.15569566 2.5135045 0
-8.9948559 -0.11255561 2.5367222 0
28.78767 -0.19404125 2.5787978 0
28.810074 -0.094174556 2.4481506 0
-9.0068874 0.10258137 2.5051095 0
-8.9922113 0.11290369 2.4830403 0
28.814196 0.11091258 2.4584374 0
-9.0127754 0.3077445 2.5416946 0
-8.9909992 0.34186491 2.5214162 0
28.814926 0.30336234 2.4723639 0
-9.0133677 0.47355542 2.5470347 0
-8.989481 0.48634434 2.4927659 0
28.787939 0.51098084 2.5433888 0
28.817095 0.53557152 2.4810088 0
-9.0087814 0.69269776 2.509397 0
-8.9953594 0.67629611 2.5592902 0
28.796598 0.73036665 2.5359716 0
28.814035 0.68537742 2.4480286 0
-9.0172367 0.90564078 2.4562061 0
-8.9914761 0.86431217 2.5005896 0
28.794779 0.87283301 2.5382247 0
28.813976 0.93907547 2.4744327 0
-9.0037088 1.0593596 2.5276232 0
-8.9885893 1.1130586 2.5192475 0
28.793306 1.0371886 2.5534189 0
28.814657 1.114928 2.4865463 0
-9.0096521 1.321915 2.5262721 0
-8.9936447 1.2895814 2.4807522 0
28.795231 1.2616769 2.4914775 0
28.813787 1.3148243 2.4686928 0
-9.006053 1.5060326 2.481127 0
-8.9870605 1.4938724 2.5125976 0
28.786732 1.5213885 2.5151718 0
28.816071 1.4933525 2.4921043 0
-9.0108175 1.6923424 2.4637272 0
-8.9899673 1.6842765 2.5049338 0
28.788198 1.7085496 2.5104985 0
28.813997 1.6861471 2.4980102 0
-9.008317 1.8834689 2.5129108 0
-8.9891644 1.9179409 2.4958537 0
28.790798 1.9305397 2.5289133 0
28.814816 1.8976234 2.5202718 0
-9.0180874 2.0955713 2.4871359 0
-8.9918022 2.0699265 2.5038111 0
28.791656 2.0917549 2.5577044 0
28.812805 2.1026034 2.4497306 0
-9.0064688 2.3014457 2.4533823 0
-8.9912872 2.2976062 2.5056086 0
28.788982 2.2695196 2.5018957 0
28.810369 2.2638433 2.5410509 0
-9.0172424 2.4748831 2.4891324 0
-8.9867764 2.492368 2.5186841 0
28.782778 2.5141544 2.5890055 0
28.806356 2.4896657 2.4709594 0
-9.0199165 2.6740394 2.4965043 0
-8.985014 2.7129972 2.5134652 0
28.789438 2.6553924 2.5040767 0
28.81353 2.6988208 2.5280588 0
-9.0125885 2.9196236 2.4811389 0
-8.9845848 2.9213798 2.4721763 0
28.784573 2.8813114 2.4808686 0
28.811563 2.8936484 2.4525456 0
-9.0112343 3.1648762 2.445811 0
-8.990056 3.0773406 2.5329289 0
21.196186 3.1498919 2.4772661 0
21.246256 3.1491206 2.5056725 0
21.465206 3.139694 2.4837568 0
21.736784 3.1340802 2.4555261 0
21.886677 3.1381309 2.507019 0
22.078485 3.1439629 2.4738963 0
22.300274 3.1358268 2.4944701 0
22.523964 3.1355391 2.4675298 0
22.734741 3.1459677 2.5154722 0
22.856586 3.1338904 2.5060191 0
23.109297 3.1363289 2.5185854 0
23.301947 3.1467659 2.4866974 0
23.470797 3.145458 2.4908905 0
23.686607 3.1442854 2.5131764 0
23.94124 3.150552 2.5512564 0
24.120714 3.1444054 2.4909544 0
24.291216 3.1439471 2.5221088 0
24.492554 3.1438644 2.5049856 0
24.683924 3.153059 2.4840248 0
24.838083 3.1477857 2.4725885 0
25.034925 3.1484947 2.4962783 0
25.267601 3.1488044 2.5083897 0
25.500469 3.1507568 2.5188689 0
25.699312 3.1504817 2.5326788 0
25.866014 3.1538415 2.5433507 0
26.117207 3.1542327 2.5081165 0
26.243248 3.151053 2.4975781 0
26.469912 3.1518307 2.4651277 0
26.749182 3.1555002 2.470979 0
26.931797 3.1482794 2.4817212 0
27.120646 3.1572125 2.4511864 0
27.289413 3.1573098 2.5052907 0
27.506046 3.1563804 2.4884801 0
27.689732 3.1621873 2.4815671 0
27.871582 3.159076 2.4708471 0
28.086868 3.1602161 2.4999471 0
28.291479 3.16168 2.5081911 0
28.522848 3.1592958 2.4952018 0
28.745447 3.1109855 2.4911397 0
28.822161 3.1062565 2.582269 0
-9.0132675 3.3334866 2.5135853 0
-8.9872723 3.3240478 2.5315957 0
21.179939 3.3372974 2.4457569 0
21.201771 3.2837245 2.5773153 0
-9.0060492 3.487751 2.5090489 0
-8.9859495 3.4867816 2.5698445 0
21.185875 3.493228 2.4400792 0
21.208961 3.5851774 2.5001087 0
-9.0134792 3.7451463 2.4964995 0
-8.9872665 3.6642368 2.5547822 0
21.186581 3.6448188 2.4946086 0
-9.0166044 3.9343574 2.4839509 0
-8.9999914 3.8973827 2.4138138 0
21.184147 3.8597155 2.5183609 0
21.209858 3.8367662 2.5467243 0
-9.0125847 4.1213002 2.4893827 0
-8.9940968 4.094244 2.5542619 0
21.187202 4.1037865 2.4884648 0
21.207039 4.1875715 2.5432639 0
-9.0173998 4.3226676 2.5142624 0
-8.9947186 4.2980032 2.4954228 0
21.179705 4.3460917 2.5694747 0
21.208042 4.2856545 2.4410708 0
-9.0180817 4.4914579 2.5409069 0
-8.9924631 4.5560832 2.4303055 0
21.190928 4.513176 2.4456384 0
21.21307 4.4820404 2.486181 0
-9.0137348 4.7041898 2.5059247 0
-8.9986629 4.74508 2.4461064 0
21.19046 4.7086725 2.5360925 0
21.208059 4.6761456 2.4465258 0
-9.0181017 4.8911872 2.4978561 0
21.188454 4.9857874 2.4540205 0
21.212135 4.8687406 2.486356 0
21.185774 5.0764961 2.4647276 0
21.212313 5.1067252 2.4909041 0
21.182207 5.2478547 2.5253057 0
21.210424 5.3873754 2.4706388 0
21.200481 5.555696 2.4042206 0
21.181698 5.6693878 2.5562069 0
9.7409019 6.336215 2.5221 0
9.9413891 6.3363314 2.5395012 0
10.095293 6.3399739 2.4909923 0
10.30086 6.3432479 2.4609144 0
10.520965 6.3390946 2.4937646 0
10.737226 6.3398128 2.4815567 0
10.925382 6.3422241 2.5077043 0
11.099359 6.3403749 2.4963591 0
11.28321 6.3469872 2.5014486 0
11.484581 6.3378029 2.4937267 0
11.706594 6.3422079 2.490777 0
11.921261 6.3438439 2.4899313 0
12.114437 6.3433633 2.4871962 0
12.29748 6.3434563 2.4858932 0
12.504593 6.342638 2.4612868 0
12.704312 6.3406506 2.4703746 0
12.891782 6.3442454 2.4887295 0
13.098761 6.3460183 2.4849064 0
13.290218 6.3445754 2.4890282 0
13.485345 6.341743 2.5117249 0
13.7168 6.3504362 2.5184655 0
13.915324 6.3414922 2.5250571 0
14.048868 6.3423142 2.5030012 0
14.261238 6.3448524 2.5318673 0
14.510519 6.3532991 2.4980426 0
14.703266 6.3422551 2.5454123 0
14.994001 6.3418989 2.4855084 0
15.081995 6.3519239 2.5390642 0
15.269999 6.3498359 2.4910696 0
15.507519 6.3496943 2.5295329 0
15.667638 6.3573308 2.5065067 0
15.909328 6.35252 2.4942248 0
16.103146 6.3440185 2.504262 0
16.278402 6.3500409 2.4859715 0
16.489634 6.3530531 2.4939742 0
16.683336 6.3509393 2.5172057 0
16.907204 6.3529811 2.5351825 0
17.077265 6.3485007 2.5580051 0
17.287642 6.351378 2.5261791 0
17.508587 6.3586378 2.5065451 0
17.695414 6.3596554 2.4834583 0
17.902773 6.3603826 2.4822965 0
18.085209 6.3577561 2.4662337 0
18.263439 6.3677464 2.4722261 0
18.492474 6.3659115 2.4810052 0
18.693159 6.3652291 2.4677289 0
18.873549 6.366724 2.4793088 0
19.051083 6.3675508 2.5111299 0
19.269531 6.3690438 2.5469522 0
19.506119 6.3620048 2.5489852 0
19.745478 6.3693519 2.5543482 0
19.933954 6.3623567 2.5186996 0
20.13587 6.3686342 2.5015063 0
20.231678 6.3831282 2.5465655 0
20.505276 6.3703518 2.5255427 0
20.761984 6.3737459 2.5069895 0
20.96833 6.3767748 2.4977083 0
21.160652 6.3482962 2.5006342 0
10.062607 -13.565703 2.7660041 0
10.047875 -13.329074 2.6996157 0
10.05864 -13.09738 2.684649 0
-1.2447146 -12.95991 2.6731977 0
-1.0912205 -12.960373 2.6860647 0
-0.92540979 -12.953972 2.6832569 0
-0.72012395 -12.958812 2.675555 0
-0.50793701 -12.968581 2.7035999 0
-0.30763894 -12.970606 2.6884754 0
-0.099282101 -12.964678 2.6696379 0
0.099613652 -12.965326 2.6872706 0
0.31843683 -12.969212 2.6887517 0
0.51366866 -12.965935 2.687676 0
0.70147467 -12.974484 2.7258754 0
0.91713542 -12.962181 2.6601472 0
1.086509 -12.967328 2.7231426 0
1.2979648 -12.964444 2.7057498 0
1.5114037 -12.965192 2.7132506 0
1.6885322 -12.963578 2.673897 0
1.9146655 -12.967651 2.6762302 0
2.1245503 -12.963973 2.6841257 0
2.30514 -12.969307 2.7010555 0
2.5118356 -12.963542 2.7083504 0
2.7159696 -12.962489 2.7360842 0
2.898787 -12.960731 2.7490335 0
3.0995305 -12.960089 2.7294548 0
3.2911847 -12.953608 2.7081914 0
3.4817624 -12.958423 2.6603367 0
3.7016311 -12.954846 2.6892827 0
3.8908775 -12.954262 2.6747782 0
4.1225271 -12.954206 2.6890867 0
4.3335419 -12.95052 2.7046576 0
4.5059509 -12.949347 2.6970501 0
4.6805263 -12.953525 2.6704776 0
4.8785472 -12.947495 2.6915722 0
5.0848823 -12.956342 2.7148895 0
5.2748928 -12.953491 2.7224555 0
5.5106816 -12.951604 2.7271516 0
5.6917276 -12.95893 2.7413344 0
5.9147515 -12.95384 2.7167568 0
6.1022196 -12.947701 2.6929836 0
6.3273067 -12.938828 2.7172494 0
6.4987712 -12.950356 2.6961346 0
6.6891823 -12.947892 2.6649415 0
6.8893085 -12.948406 2.6853592 0
7.1083832 -12.947494 2.6972797 0
7.2949924 -12.946502 2.7375641 0
7.4901757 -12.945422 2.7297862 0
7.6756415 -12.945645 2.7067001 0
7.8946443 -12.949759 2.6962364 0
8.1342373 -12.948238 2.6713645 0
8.3222132 -12.94532 2.6732597 0
8.53547 -12.945459 2.6325564 0
8.669486 -12.946662 2.6937718 0
8.928175 -12.935026 2.7199326 0
9.1440992 -12.946136 2.7012818 0
9.2863541 -12.941731 2.7085211 0
9.4981842 -12.94293 2.6884518 0
9.6922894 -12.941376 2.6961389 0
9.8520012 -12.94434 2.6870201 0
10.046964 -12.957833 2.6964316 0
-1.3762774 -12.768929 2.6867132 0
-1.3985767 -12.441561 2.7833285 0
-1.3881955 -12.281793 2.6992085 0
-1.386066 -12.091176 2.7554188 0
-1.3821316 -11.85039 2.6706536 0
-1.3868287 -11.736863 2.6947875 0
28.83769 -11.458432 2.6934888 0
-1.3901751 -11.345042 2.6848774 0
28.838747 -11.286983 2.7004445 0
-1.4179306 -11.036068 2.7926059 0
-1.3875474 -11.072472 2.6794548 0
28.842651 -11.094058 2.6613142 0
28.8444 -10.901917 2.6954229 0
-1.4264469 -10.651495 2.7062407 0
-1.3928442 -10.661672 2.7319458 0
28.841305 -10.691963 2.7140641 0
-1.3859937 -10.518366 2.7529211 0
28.843512 -10.52134 2.6934421 0
-1.4219151 -10.291771 2.6247914 0
-1.389922 -10.306908 2.7137926 0
28.798626 -10.272256 2.7651639 0
28.838108 -10.27333 2.7005897 0
-1.4207497 -10.084322 2.684001 0
28.8384 -10.125567 2.6734581 0
-1.4150925 -9.9416332 2.6126082 0
-1.3853077 -9.8992386 2.644268 0
28.799561 -9.9253683 2.7005033 0
28.836708 -9.9162874 2.6928117 0
-8.9260921 -9.7028532 2.6767137 0
-8.62078 -9.7528391 2.7039156 0
-8.4473305 -9.7236338 2.7603414 0
-8.2800722 -9.712203 2.7168052 0
-8.1189003 -9.7331858 2.7453978 0
-7.908669 -9.739913 2.7040069 0
-7.7350459 -9.7202225 2.7160943 0
-7.5008144 -9.7268572 2.7194591 0
-7.3152056 -9.7294102 2.6850674 0
-7.1118927 -9.7295132 2.6765122 0
-6.8981628 -9.7345924 2.6372745 0
-6.7089114 -9.7227488 2.6947339 0
-6.4987183 -9.718564 2.6616356 0
-6.2676649 -9.7116413 2.6885123 0
-6.0924473 -9.7046509 2.7232649 0
-5.9013963 -9.7248554 2.7173152 0
-5.694119 -9.6970778 2.6655805 0
-5.4664502 -9.7100563 2.693481 0
-5.277195 -9.708395 2.7261543 0
-5.1095538 -9.7027903 2.6989708 0
-4.8935151 -9.7066755 2.670433 0
-4.6357675 -9.7059011 2.638396 0
-4.4664617 -9.7117195 2.6845579 0
-4.3018799 -9.7011471 2.6821177 0
-4.1190052 -9.6916294 2.6989262 0
-3.869812 -9.7129259 2.7801027 0
-3.6454813 -9.7113295 2.7651939 0
-3.4594402 -9.713623 2.7485895 0
-3.2767475 -9.7190914 2.7321146 0
-3.1085243 -9.7183542 2.6871784 0
-2.9051809 -9.7222662 2.7152371 0
-2.6685863 -9.7229557 2.6751764 0
-2.4825773 -9.7189808 2.6488228 0
-2.3140929 -9.7178307 2.6790855 0
-2.0845745 -9.7222786 2.6821213 0
-1.8895296 -9.7201815 2.6906989 0
-1.6919782 -9.7260618 2.6569285 0
-1.4824356 -9.71523 2.6660302 0
-1.3940187 -9.7357731 2.7281489 0
28.83552 -9.7163773 2.7107038 0
-9.0067425 -9.4805717 2.6233287 0
-8.9913568 -9.5092659 2.7155378 0
28.795547 -9.5866346 2.6372592 0
28.8318 -9.5275488 2.6967065 0
-9.0126743 -9.2539454 2.6255279 0
-8.9894905 -9.3216772 2.7036054 0
28.832853 -9.2782907 2.6985939 0
-8.9916039 -9.10746 2.6768286 0
28.831221 -9.0925817 2.6928387 0
-9.0047455 -8.9305992 2.6926446 0
-8.9925814 -8.9031458 2.6997859 0
28.827824 -8.9099188 2.686635 0
-9.0158463 -8.7302961 2.6789999 0
-8.9897108 -8.6871538 2.6913817 0
28.833172 -8.7025795 2.6835117 0
-9.0093203 -8.4671078 2.7204762 0
-8.9922876 -8.458293 2.6682084 0
28.827393 -8.5049152 2.6778231 0
-9.0042934 -8.3003464 2.6473165 0
-8.9924555 -8.295331 2.6641593 0
28.8284 -8.2980299 2.6724577 0
-9.0125561 -8.0943813 2.6826925 0
-8.9881983 -8.1264553 2.6906178 0
28.826006 -8.0911341 2.6784649 0
-9.0038481 -7.9103909 2.697572 0
-8.9898539 -7.8821249 2.6589482 0
28.830406 -7.9094601 2.6677711 0
-9.0043097 -7.6981716 2.7021654 0
-8.9931841 -7.6415854 2.6317301 0
28.82793 -7.7170763 2.6763644 0
-9.0030174 -7.5183558 2.6879725 0
-8.9831829 -7.4799395 2.6863897 0
28.830559 -7.5057168 2.6763837 0
-9.0086241 -7.3039689 2.6750438 0
-8.987628 -7.2678986 2.6789951 0
28.830206 -7.3076267 2.6932206 0
-9.0244493 -7.1013083 2.7176802 0
-8.9850168 -7.0823145 2.6628284 0
28.828014 -7.0999579 2.6942067 0
-9.0117207 -6.9902678 2.7878499 0
-8.9919767 -6.9025722 2.6787381 0
28.827993 -6.8897362 2.7075751 0
-9.0144835 -6.7176433 2.6981821 0
-8.9913654 -6.7026644 2.7081659 0
28.826977 -6.6909995 2.6930349 0
-9.0094547 -6.5418768 2.6481419 0
-8.9912653 -6.526711 2.6859379 0
28.826031 -6.4797044 2.6998267 0
-9.0083771 -6.2929363 2.6813979 0
-8.9888792 -6.339952 2.6974885 0
28.797642 -6.380537 2.6467388 0
28.826853 -6.2860732 2.7074165 0
-9.0121899 -6.0980344 2.7201617 0
-8.9943542 -6.149087 2.7038846 0
28.827581 -6.1153493 2.6908247 0
-9.0078077 -5.9213042 2.6834018 0
-8.9930649 -5.9326253 2.6854858 0
-4.1520653 -5.9320693 2.735507 0
-3.8187783 -5.8769302 2.6996541 0
-3.7890029 -5.8901668 2.7245154 0
0.26381683 -5.9425907 2.6632502 0
0.55923396 -5.8797603 2.7132747 0
0.60261631 -5.8991494 2.6638546 0
4.6838036 -5.8660369 2.6664977 0
4.8719063 -5.9315686 2.7234926 0
5.1538119 -5.8802109 2.6948161 0
28.825396 -5.918366 2.6972806 0
-9.01688 -5.6873851 2.6936693 0
-8.9898682 -5.7107821 2.6976311 0
-3.8073349 -5.6962428 2.7350721 0
-3.7925789 -5.6921978 2.6663496 0
0.59586811 -5.6726007 2.7520719 0
0.60836852 -5.7110529 2.6519437 0
4.6830754 -5.6984115 2.6527667 0
5.1472859 -5.7039099 2.7020621 0
28.821487 -5.7151842 2.6773233 0
-9.0107288 -5.4807963 2.6818333 0
-8.991744 -5.4825492 2.7208142 0
-4.2230444 -5.4410911 2.7603848 0
-3.8037181 -5.5283966 2.69835 0
-3.793036 -5.5412574 2.7007644 0
0.31332016 -5.4528732 2.7780275 0
0.5306673 -5.4939113 2.6577799 0
0.60993481 -5.5000343 2.7015224 0
4.6817942 -5.5248303 2.6541541 0
4.9068813 -5.4440441 2.6631076 0
5.1138811 -5.4822559 2.668817 0
28.79376 -5.5793757 2.6069229 0
28.824066 -5.4869413 2.7164464 0
-9.0116625 -5.2769275 2.690058 0
-8.9839716 -5.2846837 2.7506719 0
28.822378 -5.2874289 2.7025099 0
-9.0264292 -5.14891 2.6752243 0
-8.9868898 -5.081285 2.7119148 0
28.822302 -5.0861659 2.7166972 0
-9.026845 -4.8473706 2.7445536 0
-8.9851875 -4.9346671 2.7447834 0
28.790831 -4.8410397 2.7021868 0
28.821968 -4.9025493 2.7053628 0
-9.0328751 -4.6626897 2.6855993 0
-8.9884834 -4.7309628 2.7438607 0
28.818302 -4.6994257 2.7158971 0
-8.9756298 -4.5061789 2.6827512 0
28.819201 -4.4934344 2.7358129 0
-9.0246954 -4.2838125 2.7046118 0
-8.9869471 -4.2713213 2.667726 0
28.818432 -4.3075938 2.7164736 0
-9.0227423 -4.1023636 2.7085555 0
-8.9858322 -4.0774612 2.674603 0
28.817297 -4.1107144 2.7049651 0
-9.0062771 -3.8248887 2.783196 0
-8.9891424 -3.9407861 2.6570172 0
28.793383 -3.8881259 2.7101967 0
28.817705 -3.9040723 2.7045233 0
-9.0250568 -3.737618 2.7179284 0
-8.9878044 -3.6781931 2.6774962 0
28.787861 -3.7270818 2.7450588 0
28.815712 -3.6782582 2.7152464 0
-9.0232496 -3.5343499 2.6986413 0
-8.9920959 -3.4934371 2.6717129 0
28.797222 -3.5871336 2.7373185 0
28.812624 -3.4887991 2.7210991 0
-9.0259295 -3.2589519 2.7122993 0
-8.9911947 -3.3134217 2.6868067 0
28.791937 -3.2982528 2.7436154 0
28.817705 -3.306843 2.690918 0
-9.0160971 -3.1061327 2.7129745 0
-8.9919567 -3.0643578 2.6727042 0
28.789225 -3.0778046 2.7361102 0
28.814016 -3.1453769 2.7324352 0
-9.0056181 -2.8839505 2.7056398 0
-8.995244 -2.8597286 2.6895711 0
28.812382 -2.9204414 2.7327132 0
-9.0287428 -2.706372 2.7191951 0
-8.9931908 -2.7050776 2.6504896 0
28.790997 -2.6836965 2.7198942 0
28.817732 -2.7262218 2.6976593 0
-9.0057344 -2.5254617 2.6737533 0
-8.9931707 -2.4666924 2.6711774 0
28.797981 -2.4671192 2.7533572 0
28.813051 -2.5101006 2.7298596 0
-9.0094624 -2.2849526 2.6970615 0
-8.991621 -2.287169 2.6654994 0
28.79892 -2.3281894 2.6043811 0
28.808689 -2.3099751 2.7243173 0
-9.0038633 -2.088594 2.6619802 0
-8.9797163 -2.1114829 2.6384885 0
28.793291 -2.1336269 2.7679081 0
28.806316 -2.1052182 2.7614996 0
-9.0038967 -1.8850975 2.6708663 0
-8.9923973 -1.8891201 2.6300707 0
28.785448 -1.9386513 2.7069881 0
28.811113 -1.9119136 2.7143879 0
-9.0083799 -1.6980143 2.6783123 0
-8.9944344 -1.6999472 2.6711674 0
28.789049 -1.7023457 2.6842811 0
28.817427 -1.6702504 2.7098866 0
-9.0076456 -1.5117198 2.6716454 0
-8.9856253 -1.4816442 2.6130521 0
28.782944 -1.4767728 2.7044547 0
28.810137 -1.4654502 2.7098019 0
-9.0102291 -1.3226038 2.7108471 0
-8.994503 -1.2491432 2.6237469 0
28.791388 -1.3011886 2.7101114 0
28.808201 -1.2545905 2.602401 0
-9.0128202 -1.0484135 2.7073393 0
-8.9929361 -1.0914737 2.6609223 0
14.707591 -1.0941926 2.6694341 0
14.907349 -1.169067 2.6522305 0
15.081399 -1.1060684 2.6934431 0
19.195404 -1.0712671 2.7661839 0
19.282503 -1.1051167 2.7316318 0
19.496613 -1.1478581 2.7407413 0
19.656433 -1.128181 2.7958136 0
23.599216 -1.0192325 2.6664612 0
23.657217 -1.1101449 2.7347059 0
23.93049 -1.1276894 2.7198009 0
28.794317 -1.0664746 2.6899459 0
28.810698 -1.153034 2.6806302 0
-9.0090313 -0.95508909 2.6769352 0
-8.9948349 -0.86403137 2.7049973 0
14.666405 -0.89540839 2.6726203 0
15.108394 -0.93834621 2.7071035 0
19.214321 -0.87692773 2.6834342 0
23.612026 -0.9258002 2.693296 0
28.791672 -0.88843298 2.711467 0
28.811209 -0.85911465 2.7075663 0
-9.0162077 -0.66526228 2.6996481 0
-8.9888744 -0.62726009 2.7060702 0
14.663013 -0.74914896 2.6481762 0
14.863362 -0.68381011 2.7445683 0
15.119378 -0.76513022 2.6057456 0
19.213354 -0.6939469 2.6604068 0
19.575029 -0.64961064 2.76985 0
23.593142 -0.74692273 2.6556964 0
23.618959 -0.69224685 2.6796837 0
23.920227 -0.63766462 2.6800206 0
28.796774 -0.66255146 2.6803126 0
28.810446 -0.74197417 2.6601582 0
-9.0154819 -0.51720619 2.7100725 0
-8.9883947 -0.57908648 2.743005 0
28.789495 -0.45464191 2.6652024 0
28.810888 -0.49736091 2.7148125 0
-9.0149193 -0.25164348 2.6984859 0
-8.9940138 -0.35321164 2.7506652 0
28.792591 -0.32290268 2.7295916 0
28.812056 -0.29560766 2.7021825 0
-9.021224 -0.07816875 2.7476845 0
-8.9879751 -0.12873513 2.7691011 0
28.794338 -0.10816779 2.6533804 0
28.808802 -0.089818634 2.6817799 0
-9.0082865 0.091382146 2.7407629 0
-8.9946041 0.16509578 2.7560723 0
28.791977 0.093023665 2.6629183 0
28.815012 0.10774549 2.6872447 0
-9.0227404 0.25824061 2.6946533 0
-8.9884148 0.35522532 2.7555857 0
28.791498 0.3332912 2.6256416 0
28.80932 0.28306451 2.6979177 0
-9.0203714 0.48287815 2.7199564 0
-8.9950361 0.46352515 2.7314539 0
28.792446 0.52042842 2.6409047 0
28.814096 0.50798601 2.6859386 0
-9.0202694 0.73173314 2.6865854 0
-8.9927654 0.68006986 2.6994295 0
28.797298 0.66872293 2.6760645 0
28.812698 0.70157552 2.6500604 0
-9.007246 0.94297683 2.6870651 0
-8.9930029 0.94645959 2.641994 0
28.788101 0.90369511 2.6579709 0
28.815052 0.87676513 2.6951511 0
-9.0175209 1.1550426 2.6608555 0
-8.9857397 1.0430222 2.7381306 0
28.796741 1.1622009 2.713625 0
28.811367 1.1057045 2.6862314 0
-9.0067291 1.2897443 2.6852777 0
-8.9905291 1.290481 2.7216117 0
28.811398 1.2972018 2.6776845 0
-9.0283184 1.4816325 2.7008145 0
-8.9910412 1.5196011 2.6889794 0
28.79528 1.5082492 2.7012999 0
28.809494 1.4752469 2.676734 0
-9.0136929 1.6909508 2.6484706 0
-8.9887342 1.7062563 2.7348609 0
28.793114 1.7540281 2.7057052 0
28.815388 1.6782637 2.6901629 0
-9.0085716 1.890015 2.6575038 0
-8.9915733 1.9303455 2.6743703 0
28.779648 1.9309481 2.6895247 0
28.812889 1.9205773 2.672998 0
-9.0087881 2.1174045 2.6494679 0
-8.988203 2.0875394 2.7359824 0
28.791477 2.1127126 2.6424813 0
28.813059 2.0871556 2.6949418 0
-9.0100746 2.2859221 2.6741631 0
-8.9913578 2.2795446 2.7382193 0
28.782612 2.28848 2.6346722 0
28.80752 2.3261185 2.6735077 0
-9.0160131 2.4844105 2.6836603 0
-8.9873924 2.5190325 2.6934609 0
28.784687 2.5290596 2.6600633 0
28.806828 2.5490031 2.7159557 0
-9.0202656 2.6530106 2.7073483 0
-8.9906654 2.735522 2.6955645 0
28.76939 2.72786 2.6912897 0
28.800323 2.6166115 2.6506724 0
-9.0208826 2.8993902 2.7205992 0
-8.9908314 2.9002025 2.6875832 0
28.78479 2.8889856 2.675529 0
28.804287 2.8749199 2.7030079 0
-9.0170479 3.135473 2.6962495 0
-8.9936609 3.110219 2.6814134 0
21.260113 3.1522233 2.6592202 0
21.51329 3.1475821 2.727433 0
21.673666 3.1430695 2.6498988 0
21.887566 3.1430092 2.6749632 0
22.156773 3.1421523 2.7078555 0
22.335865 3.1429238 2.722512 0
22.516777 3.1406093 2.7110248 0
22.640676 3.1450698 2.7370529 0
22.862093 3.1470816 2.7197869 0
23.063408 3.1437531 2.6602895 0
23.288549 3.143043 2.6550953 0
23.500805 3.1423993 2.6775661 0
23.723093 3.1467719 2.6904845 0
23.916235 3.1470852 2.6879828 0
24.074829 3.1465266 2.7052388 0
24.306377 3.1424742 2.6804578 0
24.484438 3.1467617 2.7042222 0
24.709593 3.1417739 2.7253706 0
24.871733 3.1486812 2.7160451 0
25.084349 3.1472349 2.7157323 0
25.306021 3.1521924 2.7024748 0
25.504805 3.1450012 2.695688 0
25.702038 3.1464546 2.7256684 0
25.875439 3.1520045 2.7263896 0
26.121161 3.1518431 2.7279675 0
26.482132 3.1529996 2.6704109 0
26.720474 3.1507499 2.6748173 0
26.845837 3.1544228 2.6883855 0
27.077419 3.1635966 2.7339497 0
27.319708 3.1615086 2.6300435 0
27.436331 3.1634083 2.7308567 0
27.679972 3.1565151 2.6877489 0
27.893509 3.1586864 2.6724052 0
28.063793 3.1642311 2.6767433 0
28.317495 3.1623054 2.6923354 0
28.525526 3.1700115 2.7107124 0
28.771643 3.1069181 2.689275 0
28.806742 3.0957506 2.6569242 0
-9.0250797 3.2990913 2.6959057 0
-8.9899483 3.2909837 2.7296286 0
21.194542 3.2766476 2.705719 0
21.215141 3.2723985 2.6472156 0
-9.0172911 3.4886005 2.6820052 0
-8.9939651 3.4957504 2.7145374 0
21.175541 3.5162206 2.6288593 0
21.204687 3.5257854 2.7116575 0
-9.0219555 3.7056859 2.6918793 0
-8.9912872 3.7146094 2.7046716 0
21.179924 3.7978926 2.6779499 0
21.204285 3.7091894 2.6496179 0
-9.0246887 3.8753445 2.7190115 0
-8.9886379 3.9098389 2.7137666 0
21.173069 3.9163728 2.7331648 0
21.201956 3.9814711 2.6332953 0
-9.0195932 4.1148953 2.7006829 0
-8.9858065 4.1014204 2.6414998 0
21.200649 4.0921268 2.6753056 0
-9.0215149 4.2889228 2.7065938 0
-8.9929781 4.2532125 2.733072 0
21.186594 4.3501425 2.6648104 0
21.201378 4.2557268 2.7959673 0
-9.0224123 4.5228386 2.7251589 0
-8.9874859 4.5206451 2.72773 0
21.202948 4.4859829 2.7029591 0
-9.0144033 4.6866589 2.7007167 0
-8.9990997 4.7083302 2.6990304 0
21.184364 4.7588067 2.6771979 0
-9.0204554 4.8614006 2.7532725 0
-8.9829769 4.9315157 2.7079451 0
21.177324 4.8914628 2.6659434 0
21.179285 5.2545643 2.6994514 0
21.171598 5.7575026 2.6976266 0
9.7847195 6.3366098 2.7296844 0
9.9451447 6.3364391 2.7081735 0
10.086164 6.3366351 2.7186396 0
10.314866 6.3439898 2.7177551 0
10.521349 6.335566 2.722753 0
10.707033 6.3416429 2.7372861 0
10.914111 6.3432302 2.73332 0
11.141801 6.3403573 2.7227142 0
11.35091 6.3434258 2.7146957 0
11.50366 6.3391213 2.7236915 0
11.720997 6.3509202 2.687443 0
11.933304 6.3478837 2.689481 0
12.108027 6.3449416 2.6912305 0
12.278088 6.3430119 2.6941571 0
12.495029 6.342411 2.6795027 0
12.739117 6.347383 2.6874442 0
12.931792 6.3457818 2.7276309 0
13.120636 6.3484125 2.6828675 0
13.349757 6.3437386 2.6902788 0
13.514333 6.3455911 2.7246318 0
13.673915 6.3481622 2.673296 0
13.877347 6.3430362 2.7035275 0
14.087264 6.3499236 2.6884906 0
14.294314 6.3413806 2.7010326 0
14.494806 6.3485527 2.707906 0
14.714523 6.3460855 2.7280109 0
14.896332 6.3530817 2.6989431 0
15.127947 6.3438191 2.7228298 0
15.307446 6.3511353 2.7332463 0
15.482997 6.3418527 2.7359202 0
15.717513 6.3466454 2.7211266 0
15.900448 6.355495 2.7174532 0
16.122841 6.347558 2.696363 0
16.287155 6.3581667 2.6927371 0
16.475945 6.3520598 2.6977 0
16.719782 6.3507962 2.6964753 0
16.868265 6.3580141 2.7055833 0
17.077497 6.3501611 2.6745269 0
17.318117 6.3530412 2.6621263 0
17.429073 6.356307 2.6579857 0
17.664196 6.3635802 2.6998606 0
17.894567 6.3597832 2.7036633 0
18.103891 6.3602142 2.6639526 0
18.271805 6.3594503 2.6818511 0
18.473581 6.3640509 2.6935246 0
18.698591 6.3657708 2.7202747 0
18.863819 6.3592434 2.719095 0
19.106615 6.3647323 2.6957088 0
19.383024 6.3588362 2.7451286 0
19.52388 6.3628607 2.7267604 0
19.716961 6.3704042 2.7215168 0
19.882929 6.3674259 2.6927612 0
20.106869 6.3670425 2.7166932 0
20.298885 6.3699965 2.6921997 0
20.523897 6.3703613 2.6776402 0
20.705164 6.3666043 2.7234814 0
20.940687 6.3701892 2.7250698 0
21.136486 6.3418245 2.722683 0
9.7299747 6.590075 2.7721343 0
9.7251568 6.8331137 2.6194508 0
10.053732 -13.467247 2.9413393 0
10.047703 -13.271705 2.923317 0
10.052633 -13.086381 2.8947897 0
-1.3092957 -12.935503 2.9074233 0
-1.0578063 -12.950819 2.9434135 0
-0.89154059 -12.955829 2.9350255 0
-0.70507699 -12.960408 2.9317102 0
-0.54097974 -12.956739 2.9309583 0
-0.2892828 -12.959311 2.9042041 0
-0.10936943 -12.964655 2.8875275 0
0.098323412 -12.96067 2.8733795 0
0.30439177 -12.960114 2.8896446 0
0.50652182 -12.963092 2.871613 0
0.69760686 -12.964426 2.8971069 0
0.89935356 -12.967052 2.890949 0
1.1061921 -12.969238 2.8968315 0
1.30136 -12.971207 2.9018445 0
1.4981881 -12.963545 2.9032323 0
1.7175912 -12.962143 2.9137013 0
1.8873895 -12.967222 2.9109328 0
2.1052003 -12.960137 2.891495 0
2.3142273 -12.963889 2.8798826 0
2.4842062 -12.962726 2.89979 0
2.6692951 -12.959904 2.9223037 0
2.8561692 -12.964518 2.8762238 0
3.078032 -12.960297 2.8763101 0
3.3191841 -12.964096 2.8830025 0
3.4942181 -12.958789 2.9082732 0
3.685843 -12.961751 2.9168923 0
3.8768201 -12.95652 2.8979435 0
