# .PCD v0.7 - Point Cloud Data file format
VERSION 0.7
FIELDS x y z intensity roll pitch yaw time
SIZE 4 4 4 4 4 4 4 8
TYPE F F F F F F F F
COUNT 1 1 1 1 1 1 1 1
WIDTH 156
HEIGHT 1
VIEWPOINT 0 0 0 1 0 0 0
POINTS 156
DATA ascii
6.5700493e-05 4.314802e-06 -0.00018912221 0 -2.6578161e-06 -0.0015926536 4.3812336e-11 2074.242
1.091383 0.071831375 -0.10931391 1 0.0016713926 -0.0029432515 0.078640737 2077.445
2.1311619 0.18289629 -0.10810207 2 -0.0012991129 0.00081462495 0.11369972 2078.644
3.1777196 0.31618339 -0.10624976 3 -0.014248231 -0.0082836952 0.14517449 2079.845
4.2410021 0.51394165 -0.096764922 4 -0.022257853 -0.011261886 0.18626465 2080.844
5.2581844 0.59008777 -0.10052087 5 -5.5059209e-05 -0.014161026 0.081667617 2082.244
5.7080393 0.5207603 -0.096853837 6 -0.00040619611 -0.011202998 -0.13448538 2083.045
6.9279456 0.33407286 -0.10490205 7 -0.00029137969 -0.020182667 -0.17979299 2084.044
8.1568089 0.25847226 -0.083924629 8 -0.021932492 -0.012776689 -0.02980056 2085.446
9.1882801 0.21993855 -0.079586625 9 -0.0061359298 -0.02148938 -0.017372584 2086.045
10.202333 0.20652765 -0.079481758 10 -0.0006265578 -0.0054564411 -0.018182941 2086.645
11.220658 0.18034224 -0.073080264 11 -0.0023247795 -0.0074301842 -0.025916344 2087.246
12.228638 0.13065414 -0.073329404 12 0.0052798386 -0.0025648596 -0.042967077 2087.845
13.239678 0.081120104 -0.060422234 13 -0.026588233 -0.01984065 -0.081028379 2088.445
14.234949 -0.033042569 -0.068388768 14 -0.0061884192 -0.020830423 -0.099397354 2089.044
14.978612 0.064857952 -0.052931301 15 -0.032074675 -0.017194727 0.22532748 2090.044
15.985796 0.36607078 -0.057517875 16 -0.017165923 -0.0097991526 0.18612845 2091.245
17.15276 0.59586757 -0.047622599 17 -0.021597512 -0.011829026 0.19056602 2092.045
18.148325 0.80396074 -0.042779781 18 -0.020585887 -0.011631783 0.21207538 2092.644
19.169104 1.0407003 -0.031813204 19 -0.007770712 -0.0068108458 0.23075768 2093.246
20.109076 1.1918588 -0.022105245 20 -0.0020383361 -0.0077125938 0.016494097 2094.246
20.470245 1.0545243 -0.02048045 21 -0.01014761 -0.0081527391 -0.27935877 2094.645
21.406626 0.69860238 -0.017391257 22 -0.003067995 -0.025523143 -0.35781401 2095.244
22.33927 0.33342567 -0.0059731305 23 0.0046386942 -0.011947665 -0.36230436 2096.044
22.347549 0.44607142 -0.0063863248 24 0.00013252519 -0.013457289 0.070968457 2096.444
22.453203 0.55157596 -0.0089967623 25 -0.023827795 -0.011309454 0.32772672 2096.646
22.649349 0.75439739 -0.0064341072 26 0.0086334422 -0.014167676 0.68436193 2096.845
22.886612 1.0985169 -0.010513659 27 -0.012464613 -0.0070289699 0.90892953 2097.245
22.930504 1.0534509 -0.0086983247 28 -0.014174714 -0.0068939184 0.61983979 2097.646
22.960873 0.97456861 -0.0099697225 29 -0.0034042206 -0.0091276104 0.34488812 2097.846
23.095972 0.91589767 -0.0063528745 30 0.00095903489 -0.011977668 0.049731009 2098.046
23.314688 0.82213008 -0.010541519 31 -0.0081412727 -0.03204523 -0.23363034 2098.244
24.237793 0.43473643 0.0028326558 32 0.0013732215 -0.01769511 -0.38185874 2098.846
25.172947 0.04560465 0.016226308 33 0.0017100213 -0.010958949 -0.40522236 2099.447
26.094053 -0.36290529 0.030277515 34 0.0051175845 -0.01056537 -0.42285752 2100.047
27.123306 -0.83380169 0.047509097 35 0.0014163455 -0.012145404 -0.42915747 2100.845
27.226318 -0.94678414 0.049319975 36 -0.00061890332 -0.016474409 -0.6434837 2101.246
27.688126 -1.4951154 0.061746888 37 0.003692775 -0.013785149 -0.8571347 2101.846
27.869434 -1.7866915 0.059832644 38 0.0085245259 -0.014389412 -1.0935308 2102.446
27.760721 -1.7771283 0.06756866 39 0.011796218 -0.0074538039 -1.5107926 2102.647
27.615026 -1.7210404 0.060666289 40 0.014288741 0.00090377807 -2.0643809 2102.847
27.487532 -1.6332616 0.04850392 41 0.017003575 0.0096750893 -2.5651822 2103.047
27.425667 -1.5833033 0.047949523 42 0.01553843 0.013108327 -2.8066969 2103.247
27.485609 -1.6431284 0.043176603 43 0.042203315 -0.0057266797 -2.3736384 2107.246
27.622042 -1.7196994 0.049431212 44 0.015349016 0.0012597396 -1.8673413 2107.446
27.68055 -1.9007161 0.050416298 45 -0.0095032109 -0.017475318 -1.6597253 2107.847
27.640148 -2.9162867 0.051096711 46 0.012895748 -0.0018526248 -1.6802899 2108.847
27.580111 -2.864413 0.055892862 47 0.014781578 -0.00038844856 -1.9499459 2109.048
27.501078 -2.811012 0.046110116 48 0.014788534 0.0055004316 -2.2774282 2109.246
27.356842 -2.8184326 0.042079113 49 0.033340629 0.0049445778 -2.5443733 2109.447
27.10685 -2.8700879 0.039399214 50 0.0018238664 0.015926881 -2.8400614 2109.648
26.112158 -3.0732644 0.022916526 51 0.015555828 0.013962299 -2.9084518 2110.246
25.111643 -3.3264329 0.0042930688 52 0.013389949 0.017413795 -2.8877664 2110.846
24.115417 -3.5937493 -0.013144722 53 0.0098116808 0.017408906 -2.8776698 2111.447
23.533333 -3.7827613 -0.029339282 54 0.017152699 0.0070123663 -2.6169052 2112.446
22.692461 -4.5104365 -0.043416161 55 0.016672038 -0.0055689747 -2.4344733 2113.246
21.928066 -5.1710677 -0.052434873 56 0.013560469 0.0047810022 -2.4307599 2113.846
21.164026 -5.8247929 -0.063961148 57 0.01589983 0.011664705 -2.4296992 2114.447
20.408163 -6.480154 -0.071842611 58 0.018113267 0.012352514 -2.4211802 2115.046
19.656467 -7.149827 -0.081660248 59 0.019457772 0.011976032 -2.4159193 2115.647
18.650177 -8.0369673 -0.085635588 60 0.013705285 0.010710106 -2.4059887 2116.447
17.828047 -8.7129154 -0.094064333 61 0.010149516 0.0117031 -2.5828719 2117.447
17.408863 -8.7587328 -0.099210568 62 0.024959052 0.0039917305 -2.9017653 2117.847
16.392925 -8.9433174 -0.11144285 63 0.011438794 0.011553287 -2.954061 2118.447
15.373145 -9.1445837 -0.12209926 64 -0.005945113 0.0086682159 -2.947046 2119.047
14.351626 -9.3575525 -0.1372069 65 -0.010479263 0.0063934843 -2.9391527 2119.649
13.338261 -9.5721197 -0.15156524 66 -0.0077830963 0.010611025 -2.9300561 2120.248
12.361454 -9.7022152 -0.15855664 67 -0.00072844513 0.013030572 -3.1370585 2121.247
12.330087 -9.6347837 -0.16195948 68 -0.0058218427 0.0068395725 2.8790307 2121.445
12.36608 -9.5296917 -0.15936358 69 -0.010045908 0.004956285 2.463166 2121.647
12.377734 -9.3779011 -0.15945527 70 -0.0084517011 0.0064266329 2.0834577 2121.848
12.403138 -9.1335096 -0.16261244 71 -0.012294089 -0.00081881275 1.7023413 2122.046
12.466543 -9.0036306 -0.15881421 72 -0.012048684 -0.0016612277 1.465415 2122.246
12.531286 -8.978673 -0.15935384 73 -0.0090726847 -0.0029007306 1.2641729 2122.647
12.467072 -9.0150661 -0.15924743 74 0.0027796649 -0.0048277397 1.5164537 2123.047
12.36517 -9.1771393 -0.1623286 75 -0.011606927 0.005888564 1.9313048 2123.45
12.260119 -9.2304258 -0.164885 76 -0.012437924 0.010751376 2.3411117 2123.648
11.801574 -8.951767 -0.17070456 77 -0.0072953398 0.012393292 2.5507367 2124.249
10.964723 -8.3876143 -0.17386258 78 0.0081160935 0.0082964115 2.5604515 2124.849
10.136587 -7.8173375 -0.18543693 79 -0.0069104889 0.0095464997 2.4938331 2125.847
9.3165274 -7.1240745 -0.20302014 80 -0.0065813218 0.003744442 2.443599 2128.047
9.2478914 -7.1554632 -0.1983856 81 -0.0027043244 0.0082867574 2.7794025 2128.648
9.1163206 -7.204576 -0.19776651 82 -0.012119849 0.012025594 3.0320499 2128.849
8.8763113 -7.2647467 -0.19598415 83 0.016612519 0.0036873368 -2.998719 2129.049
7.8866906 -7.5107651 -0.20957395 84 0.0090088695 0.012349305 -2.9111567 2129.65
6.8821487 -7.7537217 -0.21320091 85 -0.0072044423 0.0084782774 -2.9077106 2130.248
5.8692999 -7.9870329 -0.21191479 86 -0.0034787308 0.0081588626 -2.9258885 2131.05
5.7358904 -7.879159 -0.21476352 87 -0.0034510472 0.0096925115 2.9768248 2131.45
5.5353293 -7.7227707 -0.22514561 88 -0.0034821855 -0.0071619349 2.6822507 2131.648
5.2354779 -7.4267526 -0.21860766 89 -0.010362728 0.0061790086 2.3854234 2132.051
5.2102962 -7.4261236 -0.2225005 90 -0.0047052987 0.0046720789 2.7433648 2132.65
5.2345071 -7.5418272 -0.22864853 91 -0.0035446398 0.0021816853 -3.140204 2132.849
5.2046838 -7.67625 -0.21791564 92 0.00081592915 0.0103301 -2.6959226 2133.05
5.136076 -7.8894391 -0.21878462 93 0.010744076 0.0068820887 -2.24561 2133.251
5.1211848 -8.1076927 -0.22566137 94 0.0014548078 0.0056141829 -1.899344 2133.45
5.1709142 -8.2179441 -0.2240479 95 0.0059597646 0.0051219827 -1.6473126 2133.649
5.1358991 -8.16224 -0.22764958 96 -0.0062355129 -0.00021839335 -1.8788463 2134.25
5.0890255 -8.0693083 -0.229644 97 0.0019211208 0.0078127868 -2.1346648 2134.451
5.0596766 -7.9657269 -0.22428396 98 0.0017187666 0.0089857178 -2.4616752 2134.649
5.0292969 -7.8470936 -0.2267922 99 -0.00076612184 0.0095986156 -2.8897345 2134.85
3.9917042 -7.9430609 -0.22659861 100 -0.0087758554 0.0050879251 -3.0137239 2136.051
2.9783535 -8.0867462 -0.234769 101 -0.021006607 -0.0010762026 -3.0122039 2136.649
1.9659959 -8.2405519 -0.24318813 102 -0.0018610954 0.004501781 -2.9865329 2137.249
0.73793888 -8.2253895 -0.26905629 103 -0.0058636013 -0.0043061129 3.1129522 2138.648
-0.2823382 -8.2089338 -0.27467042 104 -0.0023947593 -0.0004772596 3.1237259 2139.249
-1.3015412 -8.1929502 -0.28418785 105 -0.00018201648 0.011149153 3.1307063 2139.85
-2.315484 -8.1845236 -0.29032156 106 -0.0021426359 0.010997887 3.1278062 2140.451
-3.3283441 -8.1627893 -0.29916501 107 -0.012771083 0.010624569 3.1163609 2141.051
-4.3313732 -8.1255589 -0.32078594 108 -0.024094826 0.001661234 3.0938885 2141.65
-5.3366003 -8.0627298 -0.32556254 109 -0.01142797 0.0077877291 3.0643218 2142.45
-5.3024535 -7.9815426 -0.32575941 110 -0.010864052 0.0042203618 2.7338233 2142.852
-5.5204606 -7.6639733 -0.32160473 111 -0.024806468 -0.0052521545 2.2909014 2143.25
-6.1466928 -6.8470855 -0.32097459 112 -0.0021534576 0.00063041132 2.25055 2143.851
-6.7969222 -6.0400243 -0.32168311 113 0.00051124394 0.0010738726 2.253792 2144.451
-7.4551659 -5.2306609 -0.32554251 114 -0.00318594 0.0026722255 2.2569423 2145.052
-7.783536 -4.6112361 -0.32497409 115 -0.010042391 -0.0053690849 1.7528853 2146.051
-7.6380353 -4.6367812 -0.32895118 116 -0.0044366294 -0.01249537 1.2224818 2146.251
-7.5159321 -4.6968093 -0.32364362 117 0.0049508978 -0.0081893746 0.74855489 2146.45
-7.5054612 -4.61168 -0.32511914 118 -0.0078972727 -0.0052308817 1.0183569 2148.451
-7.5006495 -4.3913445 -0.32976776 119 -0.009428109 -0.01840733 1.3248031 2148.849
-7.5324259 -3.9023938 -0.32759506 120 -0.011481309 -0.003671854 1.603492 2149.25
-7.4576373 -3.8897133 -0.31443083 121 -0.0072078491 -0.0073141237 1.2633215 2149.849
-7.354538 -3.9717953 -0.31155685 122 -6.9402646e-05 -0.0095184036 0.78247911 2150.051
-7.2417536 -4.0207639 -0.31597176 123 0.0063485112 -0.010434372 0.4433381 2150.251
-7.1508608 -4.0602474 -0.3100509 124 0.0053594611 -0.0093118558 0.17914492 2150.451
-7.1810637 -3.9801974 -0.31698272 125 0.0080674188 -0.018727006 0.53338391 2151.05
-7.1614118 -3.8761621 -0.31269053 126 0.00082150346 -0.01044693 0.77290052 2151.25
-7.16008 -3.7254429 -0.31359342 127 -0.014953323 -0.0079840999 1.0854168 2151.451
-7.1613278 -3.4783249 -0.31689045 128 -0.0099092955 -0.02237528 1.396023 2151.649
-7.1994057 -3.2134368 -0.30344227 129 -0.011949685 -0.0017407242 1.6047121 2151.851
-7.1515913 -3.03881 -0.29898492 130 -0.012611153 -0.014597238 1.3385397 2152.65
-7.0263662 -3.1132236 -0.29303184 131 0.0020608886 -0.013623476 0.82219476 2152.85
-6.9398398 -3.1546717 -0.29446822 132 -0.0041995966 -0.014285862 0.51141036 2153.052
-6.5039845 -3.1024919 -0.29313833 133 -0.00018409677 -0.028372809 0.18258393 2153.449
-5.5004025 -3.0233567 -0.2708489 134 0.0052394113 -0.015489429 0.078083232 2154.05
-4.8372912 -2.9247649 -0.25065026 135 0.0072004106 -0.012746887 0.27861428 2154.851
-4.9082093 -2.8495297 -0.25809669 136 -0.0053573912 -0.011426882 0.63815957 2155.051
-4.9419813 -2.7709885 -0.25742221 137 -0.011004338 -0.010608926 0.90758932 2155.251
-4.6960149 -2.6577699 -0.24722798 138 -0.0023825546 -0.017278019 0.58114326 2155.648
-4.446178 -2.5935838 -0.24376149 139 -0.005089669 -0.010772317 0.37214574 2155.851
-4.2158079 -2.5296984 -0.24047489 140 0.00018979733 -0.016423708 0.6740557 2156.65
-3.8676629 -2.0737724 -0.22626926 141 0.0088796057 -0.016522685 0.90634513 2157.451
-3.4463618 -1.3557069 -0.20946559 142 -0.0015732696 -0.012585188 1.2288468 2158.45
-3.471632 -1.259625 -0.21249388 143 0.015448154 -0.022583364 1.4353445 2158.651
-3.5717914 -0.71741891 -0.20708986 144 -0.0020221295 -0.0084569454 1.7101841 2159.051
-3.6213934 -0.045269519 -0.19596492 145 -0.013064978 -0.011446306 1.5092201 2159.85
-3.5338063 -0.12745599 -0.20041452 146 -0.0091490904 -0.012432192 1.135349 2160.05
-3.4420874 -0.1964101 -0.20077026 147 -0.0022136103 -0.013921364 0.7382313 2160.251
-3.2772615 -0.23098293 -0.19968177 148 0.020040713 -0.015832597 0.37540185 2160.452
-3.028182 -0.24607827 -0.19696371 149 -0.017408714 -0.018544283 0.037078664 2160.651
-2.0227253 -0.33679238 -0.1832657 150 0.0097333277 -0.014233252 -0.054867454 2161.251
-0.99053198 -0.37961838 -0.17606589 151 0.012206079 -0.0085691642 -0.028486922 2161.854
0.027655277 -0.40985599 -0.16409512 152 0.0080371713 -0.0060406327 -0.033036236 2162.652
0.15852647 -0.32551041 -0.16977756 153 0.020740483 -0.017570972 0.25116017 2163.051
0.62306625 -0.063672647 -0.16736861 154 0.017572081 -0.016871437 0.4903619 2163.452
1.5113754 0.39611548 -0.15415853 155 0.0016134538 -0.0087689385 0.45546535 2164.253
